# .PCD v0.7 - Point Cloud Data file format
VERSION 0.7
FIELDS x y z
SIZE 4 4 4
TYPE F F F
COUNT 1 1 1
WIDTH 1624
HEIGHT 1
VIEWPOINT 0 0 0 1 0 0 0
POINTS 1624
DATA ascii
0.036286 -0.012927 0.2234
0.036674999 -0.012898 0.2229
0.037062 -0.012869 0.22239999
0.037531 -0.012869 0.22239999
0.037898 -0.012834 0.2218
0.038279001 -0.012805 0.22130001
0.038745999 -0.012805 0.22130001
0.039124001 -0.012776 0.2208
0.039501 -0.012748 0.2203
0.039893001 -0.012724 0.2199
0.040357001 -0.012724 0.2199
0.040727999 -0.012695 0.2194
0.041134 -0.012678 0.2191
0.041597001 -0.012678 0.2191
0.042001002 -0.012661 0.21879999
0.042424001 -0.012649 0.2186
0.042846002 -0.012638 0.2184
0.043306999 -0.012638 0.2184
0.043747999 -0.012632 0.2183
0.044188 -0.012626 0.2182
0.044606999 -0.012614 0.21799999
0.045067001 -0.012614 0.21799999
0.045527 -0.012614 0.21799999
0.045965999 -0.012609 0.21789999
0.046404 -0.012603 0.21780001
0.046863999 -0.012603 0.21780001
0.047323 -0.012603 0.21780001
0.047782999 -0.012603 0.21780001
0.048241999 -0.012603 0.21780001
0.048702002 -0.012603 0.21780001
0.049160998 -0.012603 0.21780001
0.049621001 -0.012603 0.21780001
0.050080001 -0.012603 0.21780001
0.05054 -0.012603 0.21780001
0.051022999 -0.012609 0.21789999
0.051483002 -0.012609 0.21789999
0.051966 -0.012614 0.21799999
0.052474 -0.012626 0.2182
0.052983001 -0.012638 0.2184
0.053493001 -0.012649 0.2186
0.053954002 -0.012649 0.2186
0.054465 -0.012661 0.21879999
0.054977 -0.012672 0.219
0.055514999 -0.01269 0.2193
0.056028001 -0.012701 0.21950001
0.056492001 -0.012701 0.21950001
0.057032 -0.012719 0.2198
0.057549 -0.01273 0.22
0.058065001 -0.012742 0.2202
0.058582999 -0.012753 0.22040001
0.059101999 -0.012765 0.22059999
0.059567001 -0.012765 0.22059999
0.060086999 -0.012776 0.2208
0.060635 -0.012794 0.2211
0.061129 -0.0128 0.2212
0.061678998 -0.012817 0.22149999
0.062146999 -0.012817 0.22149999
0.062670998 -0.012829 0.2217
0.063194998 -0.01284 0.2219
0.063749 -0.012857 0.22220001
0.064276002 -0.012869 0.22239999
0.064745001 -0.012869 0.22239999
0.065273002 -0.012881 0.2226
0.065802 -0.012892 0.2228
0.066330999 -0.012904 0.223
0.066891998 -0.012921 0.2233
0.067363001 -0.012921 0.2233
0.067895003 -0.012933 0.2235
0.068457998 -0.01295 0.2238
0.068991996 -0.012962 0.22400001
0.069557004 -0.012979 0.2243
0.070031002 -0.012979 0.2243
0.070597999 -0.012996 0.2246
0.071199 -0.013019 0.22499999
0.071768999 -0.013037 0.2253
0.072371997 -0.01306 0.22570001
0.072848998 -0.01306 0.22570001
0.073454998 -0.013083 0.2261
0.074095003 -0.013112 0.22660001
0.074704997 -0.013135 0.227
0.075383 -0.01317 0.22759999
0.076128997 -0.013216 0.22840001
0.076846004 -0.013257 0.2291
0.077329002 -0.013257 0.2291
0.078083999 -0.013303 0.2299
0.078809001 -0.013344 0.2306
0.079535998 -0.013384 0.2313
0.080231003 -0.013419 0.23190001
0.080894999 -0.013448 0.2324
0.081560001 -0.013477 0.23289999
0.082052 -0.013477 0.23289999
0.082685001 -0.0135 0.2333
0.083283998 -0.013517 0.23360001
0.083848 -0.013529 0.23379999
0.084413998 -0.01354 0.234
0.084907003 -0.01354 0.234
0.085473999 -0.013552 0.2342
0.085968003 -0.013552 0.2342
0.086461999 -0.013552 0.2342
0.086919002 -0.013546 0.2341
0.087338999 -0.013534 0.2339
0.087756999 -0.013523 0.23370001
0.088249996 -0.013523 0.23370001
0.088666998 -0.013511 0.2335
0.089160003 -0.013511 0.2335
0.089652002 -0.013511 0.2335
0.090184003 -0.013517 0.23360001
0.090676002 -0.013517 0.23360001
0.091637999 -0.013587 0.2348
-0.058552001 -0.013939 0.25
-0.058024999 -0.013939 0.25
-0.057496998 -0.013939 0.25
-0.055693999 -0.013626 0.24439999
-0.055178002 -0.013626 0.24439999
-0.053365 -0.013303 0.2386
-0.052862 -0.013303 0.2386
-0.051876001 -0.01318 0.23639999
-0.051376998 -0.01318 0.23639999
-0.050684001 -0.01313 0.23549999
-0.050081 -0.013102 0.235
-0.049585 -0.013102 0.235
-0.048964001 -0.013069 0.2344
-0.048427999 -0.013058 0.2342
-0.047892999 -0.013047 0.234
-0.047398999 -0.013047 0.234
-0.046886001 -0.013041 0.2339
-0.046353001 -0.01303 0.23370001
-0.045820002 -0.013019 0.2335
-0.045327999 -0.013019 0.2335
-0.044797 -0.013008 0.2333
-0.044266 -0.012996 0.2331
-0.043756001 -0.012991 0.233
-0.043226998 -0.01298 0.23280001
-0.042644002 -0.012952 0.2323
-0.042063002 -0.012924 0.2318
-0.041574001 -0.012924 0.2318
-0.040979002 -0.01289 0.23119999
-0.040351 -0.012846 0.2304
-0.039864998 -0.012846 0.2304
-0.039207999 -0.01279 0.22939999
-0.038571998 -0.01274 0.22849999
-0.038090002 -0.01274 0.22849999
-0.037459999 -0.01269 0.22759999
-0.036897998 -0.012662 0.2271
-0.036419 -0.012662 0.2271
-0.035877001 -0.01264 0.22669999
-0.035351999 -0.012623 0.2264
-0.034843002 -0.012612 0.2262
-0.034366 -0.012612 0.2262
-0.033859 -0.012601 0.226
-0.033353001 -0.012589 0.22579999
-0.032846998 -0.012578 0.2256
-0.032370999 -0.012578 0.2256
-0.031867001 -0.012567 0.2254
-0.031362999 -0.012556 0.2252
-0.030888001 -0.012556 0.2252
-0.030386001 -0.012545 0.22499999
-0.029898001 -0.012539 0.22490001
-0.029398 -0.012528 0.2247
-0.028922999 -0.012528 0.2247
-0.028424 -0.012517 0.2245
-0.027938001 -0.012511 0.2244
-0.02744 -0.0125 0.2242
-0.026967 -0.0125 0.2242
-0.026458999 -0.012483 0.22390001
-0.025962999 -0.012472 0.2237
-0.025457 -0.012456 0.2234
-0.024986001 -0.012456 0.2234
-0.024491999 -0.012444 0.22319999
-0.024 -0.012433 0.223
-0.023519 -0.012428 0.2229
-0.023049001 -0.012428 0.2229
-0.022558 -0.012417 0.2227
-0.022067999 -0.012405 0.2225
-0.021589 -0.0124 0.22239999
-0.021120001 -0.0124 0.22239999
-0.020632001 -0.012389 0.22220001
-0.020145001 -0.012378 0.222
-0.019659 -0.012366 0.2218
-0.019191001 -0.012366 0.2218
-0.018715 -0.012361 0.2217
-0.018239001 -0.012355 0.2216
-0.017755 -0.012344 0.22139999
-0.017287999 -0.012344 0.22139999
-0.016814001 -0.012338 0.22130001
-0.016339 -0.012333 0.2212
-0.015858 -0.012322 0.221
-0.015392 -0.012322 0.221
-0.014919 -0.012316 0.2209
-0.01444 -0.012305 0.2207
-0.013962 -0.012294 0.22050001
-0.013496 -0.012294 0.22050001
-0.013019 -0.012283 0.2203
-0.012543 -0.012272 0.2201
-0.012073 -0.012266 0.22
-0.011609 -0.012266 0.22
-0.01114 -0.01226 0.2199
-0.010671 -0.012255 0.2198
-0.010208 -0.012255 0.2198
-0.0097439997 -0.012255 0.2198
-0.0092759999 -0.012249 0.21969999
-0.008812 -0.012249 0.21969999
-0.0083489995 -0.012249 0.21969999
-0.0078849997 -0.012249 0.21969999
-0.0074220002 -0.012249 0.21969999
-0.0069579999 -0.012249 0.21969999
-0.0064949999 -0.012249 0.21969999
-0.0060339998 -0.012255 0.2198
-0.00557 -0.012255 0.2198
-0.005107 -0.012255 0.2198
-0.0046470002 -0.012266 0.22
-0.004185 -0.012272 0.2201
-0.0037219999 -0.012277 0.2202
-0.0032609999 -0.012288 0.22040001
-0.0027960001 -0.012288 0.22040001
-0.0023320001 -0.012294 0.22050001
-0.001867 -0.012299 0.22059999
-0.001403 -0.012311 0.2208
-0.00093699998 -0.012311 0.2208
-0.00047100001 -0.012311 0.2208
-6.0000002e-06 -0.012322 0.221
0.00046099999 -0.012327 0.2211
0.00092800002 -0.012333 0.2212
0.001394 -0.012333 0.2212
0.001861 -0.012333 0.2212
0.002329 -0.012338 0.22130001
0.0027970001 -0.012344 0.22139999
0.003266 -0.01235 0.22149999
0.003735 -0.012355 0.2216
0.0042019999 -0.012355 0.2216
0.0046740002 -0.012366 0.2218
0.0051489999 -0.012383 0.2221
0.00563 -0.012411 0.2226
0.006116 -0.012444 0.22319999
0.0066109998 -0.012489 0.22400001
0.0070830001 -0.012489 0.22400001
0.0075759999 -0.012522 0.2246
0.0080639999 -0.012545 0.22499999
0.0085540004 -0.012567 0.2254
0.0090340003 -0.012573 0.2255
0.009513 -0.012578 0.2256
0.0099889999 -0.012578 0.2256
0.010465 -0.012578 0.2256
0.010946 -0.012584 0.22570001
0.011422 -0.012584 0.22570001
0.011904 -0.012589 0.22579999
0.01238 -0.012589 0.22579999
0.012862 -0.012595 0.22589999
0.013351 -0.012606 0.2261
0.01384 -0.012617 0.2263
0.01433 -0.012628 0.2265
0.014808 -0.012628 0.2265
0.015293 -0.012634 0.22660001
0.015771 -0.012634 0.22660001
0.016248999 -0.012634 0.22660001
0.016727 -0.012634 0.22660001
0.017197 -0.012628 0.2265
0.017674999 -0.012628 0.2265
0.018145001 -0.012623 0.2264
0.018623 -0.012623 0.2264
0.019099999 -0.012623 0.2264
0.019586001 -0.012628 0.2265
0.020064 -0.012628 0.2265
0.020551 -0.012634 0.22660001
0.021028999 -0.012634 0.22660001
0.021516999 -0.01264 0.22669999
0.022004999 -0.012645 0.22679999
0.022492999 -0.012651 0.2269
0.022981999 -0.012656 0.227
0.023460999 -0.012656 0.227
0.023951 -0.012662 0.2271
0.024408 -0.012651 0.2269
0.024886999 -0.012651 0.2269
0.025320999 -0.012628 0.2265
0.025742 -0.012601 0.226
0.026172001 -0.012578 0.2256
0.026648 -0.012578 0.2256
0.027088 -0.012561 0.2253
0.027550999 -0.012556 0.2252
0.028026 -0.012556 0.2252
0.028501 -0.012556 0.2252
0.028976001 -0.012556 0.2252
0.029452 -0.012556 0.2252
0.02994 -0.012561 0.2253
0.030429 -0.012567 0.2254
0.030918 -0.012573 0.2255
0.031394001 -0.012573 0.2255
0.03187 -0.012573 0.2255
0.032331001 -0.012567 0.2254
0.032806002 -0.012567 0.2254
0.033252001 -0.012556 0.2252
0.033698 -0.012545 0.22499999
0.034127001 -0.012528 0.2247
0.034600999 -0.012528 0.2247
0.035011999 -0.012506 0.2243
0.035422001 -0.012483 0.22390001
0.035863001 -0.012472 0.2237
0.036286 -0.012456 0.2234
0.036674999 -0.012428 0.2229
0.037062 -0.0124 0.22239999
0.037531 -0.0124 0.22239999
0.037898 -0.012366 0.2218
0.038279001 -0.012338 0.22130001
0.038745999 -0.012338 0.22130001
0.039124001 -0.012311 0.2208
0.039501 -0.012283 0.2203
0.039893001 -0.01226 0.2199
0.040357001 -0.01226 0.2199
0.040727999 -0.012233 0.2194
0.041134 -0.012216 0.2191
0.041597001 -0.012216 0.2191
0.042001002 -0.012199 0.21879999
0.042424001 -0.012188 0.2186
0.042846002 -0.012177 0.2184
0.043306999 -0.012177 0.2184
0.043747999 -0.012171 0.2183
0.044188 -0.012166 0.2182
0.044606999 -0.012154 0.21799999
0.045067001 -0.012154 0.21799999
0.045527 -0.012154 0.21799999
0.045965999 -0.012149 0.21789999
0.046404 -0.012143 0.21780001
0.046863999 -0.012143 0.21780001
0.047323 -0.012143 0.21780001
0.047782999 -0.012143 0.21780001
0.048241999 -0.012143 0.21780001
0.048746999 -0.012154 0.21799999
0.049206998 -0.012154 0.21799999
0.049667001 -0.012154 0.21799999
0.050126001 -0.012154 0.21799999
0.050609998 -0.01216 0.2181
0.051093001 -0.012166 0.2182
0.051577002 -0.012171 0.2183
0.052037999 -0.012171 0.2183
0.052522 -0.012177 0.2184
0.053032 -0.012188 0.2186
0.053541999 -0.012199 0.21879999
0.054003 -0.012199 0.21879999
0.054540001 -0.012216 0.2191
0.055052001 -0.012227 0.2193
0.055590998 -0.012244 0.21960001
0.056104999 -0.012255 0.2198
0.056620002 -0.012266 0.22
0.057084002 -0.012266 0.22
0.057601001 -0.012277 0.2202
0.058118001 -0.012288 0.22040001
0.058662999 -0.012305 0.2207
0.059181999 -0.012316 0.2209
0.059648 -0.012316 0.2209
0.060169 -0.012327 0.2211
0.060690001 -0.012338 0.22130001
0.061212 -0.01235 0.22149999
0.061735 -0.012361 0.2217
0.062203001 -0.012361 0.2217
0.062755004 -0.012378 0.222
0.063281 -0.012389 0.22220001
0.063807003 -0.0124 0.22239999
0.064333998 -0.012411 0.2226
0.064802997 -0.012411 0.2226
0.065332003 -0.012422 0.2228
0.065861002 -0.012433 0.223
0.066390999 -0.012444 0.22319999
0.066951998 -0.012461 0.2235
0.067423001 -0.012461 0.2235
0.067955002 -0.012472 0.2237
0.068519004 -0.012489 0.22400001
0.069053002 -0.0125 0.2242
0.069619 -0.012517 0.2245
0.070092998 -0.012517 0.2245
0.070661001 -0.012534 0.22480001
0.071262002 -0.012556 0.2252
0.071832001 -0.012573 0.2255
0.072435997 -0.012595 0.22589999
0.072912998 -0.012595 0.22589999
0.073519997 -0.012617 0.2263
0.074161001 -0.012645 0.22679999
0.074771002 -0.012667 0.2272
0.075448997 -0.012701 0.2278
0.076163001 -0.01274 0.22849999
0.076880001 -0.012779 0.22920001
0.077362999 -0.012779 0.22920001
0.078117996 -0.012824 0.23
0.078809001 -0.012857 0.2306
0.079535998 -0.012896 0.2313
0.080231003 -0.012929 0.23190001
0.080894999 -0.012957 0.2324
0.081560001 -0.012985 0.23289999
0.082052 -0.012985 0.23289999
0.082685001 -0.013008 0.2333
0.083283998 -0.013024 0.23360001
0.083848 -0.013035 0.23379999
0.084413998 -0.013047 0.234
0.084907003 -0.013047 0.234
0.085473999 -0.013058 0.2342
0.085968003 -0.013058 0.2342
0.086461999 -0.013058 0.2342
0.086919002 -0.013052 0.2341
0.087338999 -0.013041 0.2339
0.087756999 -0.01303 0.23370001
0.088249996 -0.01303 0.23370001
0.088666998 -0.013019 0.2335
0.089160003 -0.013019 0.2335
0.089652002 -0.013019 0.2335
0.090184003 -0.013024 0.23360001
0.090676002 -0.013024 0.23360001
0.091637999 -0.013091 0.2348
-0.059622999 -0.013535 0.25229999
-0.058763001 -0.013459 0.2509
-0.058233 -0.013459 0.2509
-0.056738 -0.013234 0.2467
-0.056081001 -0.013202 0.24609999
-0.055562001 -0.013202 0.24609999
-0.053677998 -0.012875 0.23999999
-0.053172 -0.012875 0.23999999
-0.052095 -0.012735 0.2374
-0.051486 -0.012708 0.2369
-0.050792001 -0.01266 0.236
-0.050124001 -0.012617 0.2352
-0.049626999 -0.012617 0.2352
-0.049027 -0.01259 0.23469999
-0.048470002 -0.012574 0.2344
-0.047933999 -0.012564 0.2342
-0.04744 -0.012564 0.2342
-0.046905998 -0.012553 0.234
-0.046392001 -0.012548 0.2339
-0.04586 -0.012537 0.23370001
-0.045366 -0.012537 0.23370001
-0.044835001 -0.012526 0.2335
-0.044284999 -0.01251 0.2332
-0.043756001 -0.012499 0.233
-0.043264002 -0.012499 0.233
-0.042681001 -0.012472 0.2325
-0.042100001 -0.012446 0.23199999
-0.041609999 -0.012446 0.23199999
-0.041014001 -0.012413 0.2314
-0.040351 -0.01236 0.2304
-0.039864998 -0.01236 0.2304
-0.039105002 -0.012274 0.2288
-0.038571998 -0.012258 0.22849999
-0.037957001 -0.012215 0.2277
-0.037393998 -0.012188 0.2272
-0.036832999 -0.012161 0.22669999
-0.036355 -0.012161 0.22669999
-0.035829 -0.012145 0.2264
-0.035321001 -0.012134 0.2262
-0.034812 -0.012124 0.226
-0.034336001 -0.012124 0.226
-0.033814002 -0.012108 0.22570001
-0.033293001 -0.012092 0.2254
-0.032818001 -0.012092 0.2254
-0.032313999 -0.012081 0.2252
-0.031824 -0.012075 0.2251
-0.031321999 -0.012065 0.22490001
-0.030847 -0.012065 0.22490001
-0.030359 -0.012059 0.22480001
-0.029858001 -0.012049 0.2246
-0.029358 -0.012038 0.2244
-0.028884999 -0.012038 0.2244
-0.028386001 -0.012027 0.2242
-0.027888 -0.012016 0.22400001
-0.027391 -0.012006 0.2238
-0.026919 -0.012006 0.2238
-0.026423 -0.011995 0.2236
-0.025916999 -0.011979 0.2233
-0.025423 -0.011968 0.22310001
-0.024952 -0.011968 0.22310001
-0.024459001 -0.011957 0.2229
-0.023968 -0.011947 0.2227
-0.023487 -0.011941 0.2226
-0.023018001 -0.011941 0.2226
-0.022528 -0.011931 0.22239999
-0.022039 -0.01192 0.22220001
-0.02155 -0.011909 0.222
-0.021082001 -0.011909 0.222
-0.020603999 -0.011904 0.2219
-0.020118 -0.011893 0.2217
-0.019641999 -0.011888 0.2216
-0.019174 -0.011888 0.2216
-0.018689999 -0.011877 0.22139999
-0.018206 -0.011866 0.2212
-0.017731 -0.011861 0.2211
-0.017264999 -0.011861 0.2211
-0.016790999 -0.011855 0.221
-0.016317001 -0.01185 0.2209
-0.015844001 -0.011845 0.2208
-0.015378 -0.011845 0.2208
-0.014899 -0.011834 0.22059999
-0.01442 -0.011823 0.22040001
-0.013943 -0.011813 0.2202
-0.013478 -0.011813 0.2202
-0.013002 -0.011802 0.22
-0.012526 -0.011791 0.2198
-0.012057 -0.011786 0.21969999
-0.011593 -0.011786 0.21969999
-0.011125 -0.01178 0.21960001
-0.010657 -0.011775 0.21950001
-0.010194 -0.011775 0.21950001
-0.00973 -0.011775 0.21950001
-0.0092669996 -0.011775 0.21950001
-0.0088 -0.01177 0.2194
-0.0083370004 -0.01177 0.2194
-0.0078750001 -0.01177 0.2194
-0.0074120001 -0.01177 0.2194
-0.0069490001 -0.01177 0.2194
-0.0064889998 -0.011775 0.21950001
-0.0060259998 -0.011775 0.21950001
-0.0055650002 -0.01178 0.21960001
-0.0051020002 -0.01178 0.21960001
-0.0046430002 -0.011791 0.2198
-0.0041809999 -0.011796 0.2199
-0.0037189999 -0.011802 0.22
-0.0032579999 -0.011813 0.2202
-0.0027930001 -0.011813 0.2202
-0.002329 -0.011818 0.2203
-0.001866 -0.011829 0.22050001
-0.001402 -0.011834 0.22059999
-0.00093699998 -0.011845 0.2208
-0.00047100001 -0.011845 0.2208
-6.0000002e-06 -0.011855 0.221
0.00046099999 -0.011861 0.2211
0.00092800002 -0.011866 0.2212
0.001396 -0.011877 0.22139999
0.001863 -0.011877 0.22139999
0.00233 -0.011877 0.22139999
0.0027999999 -0.011888 0.2216
0.003269 -0.011893 0.2217
0.0037380001 -0.011898 0.2218
0.0042059999 -0.011898 0.2218
0.0046799998 -0.011915 0.2221
0.0051560001 -0.011931 0.22239999
0.0056400001 -0.011963 0.223
0.0061269999 -0.011995 0.2236
0.0066220001 -0.012038 0.2244
0.0071120001 -0.012065 0.22490001
0.007586 -0.012065 0.22490001
0.0080779996 -0.012092 0.2254
0.0085619995 -0.012102 0.2256
0.0090460004 -0.012113 0.22579999
0.0095260004 -0.012118 0.22589999
0.010003 -0.012118 0.22589999
0.010479 -0.012118 0.22589999
0.010961 -0.012124 0.226
0.011438 -0.012124 0.226
0.011914 -0.012124 0.226
0.012391 -0.012124 0.226
0.012879 -0.012134 0.2262
0.013368 -0.012145 0.2264
0.013858 -0.012156 0.22660001
0.014343 -0.012161 0.22669999
0.014821 -0.012161 0.22669999
0.015306 -0.012167 0.22679999
0.015791001 -0.012172 0.2269
0.016263001 -0.012167 0.22679999
0.016741 -0.012167 0.22679999
0.01722 -0.012167 0.22679999
0.017690999 -0.012161 0.22669999
0.018169001 -0.012161 0.22669999
0.018647 -0.012161 0.22669999
0.019126 -0.012161 0.22669999
0.019603999 -0.012161 0.22669999
0.020090999 -0.012167 0.22679999
0.020569 -0.012167 0.22679999
0.021048 -0.012167 0.22679999
0.021536 -0.012172 0.2269
0.022024 -0.012177 0.227
0.022523001 -0.012188 0.2272
0.023002001 -0.012188 0.2272
0.023482 -0.012188 0.2272
0.023961 -0.012188 0.2272
0.024429999 -0.012183 0.2271
0.024909001 -0.012183 0.2271
0.025366001 -0.012172 0.2269
0.025787 -0.012145 0.2264
0.026207 -0.012118 0.22589999
0.026683999 -0.012118 0.22589999
0.027124001 -0.012102 0.2256
0.027588001 -0.012097 0.2255
0.028063999 -0.012097 0.2255
0.028539 -0.012097 0.2255
0.029015001 -0.012097 0.2255
0.029491 -0.012097 0.2255
0.02998 -0.012102 0.2256
0.030469 -0.012108 0.22570001
0.030959001 -0.012113 0.22579999
0.031436 -0.012113 0.22579999
0.031911999 -0.012113 0.22579999
0.032373998 -0.012108 0.22570001
0.032850001 -0.012108 0.22570001
0.033296999 -0.012097 0.2255
0.033743002 -0.012086 0.2253
0.034171999 -0.01207 0.22499999
0.034646999 -0.01207 0.22499999
0.035059001 -0.012049 0.2246
0.035470001 -0.012027 0.2242
0.035863001 -0.012 0.2237
0.036334999 -0.012 0.2237
0.036724001 -0.011974 0.22319999
0.037094999 -0.011941 0.2226
0.037565 -0.011941 0.2226
0.037949 -0.011915 0.2221
0.038330998 -0.011888 0.2216
0.038798999 -0.011888 0.2216
0.039177999 -0.011861 0.2211
0.039554 -0.011834 0.22059999
0.039946999 -0.011813 0.2202
0.040412001 -0.011813 0.2202
0.040801998 -0.011791 0.2198
0.041191 -0.01177 0.2194
0.041653998 -0.01177 0.2194
0.042059001 -0.011754 0.2191
0.042482 -0.011743 0.2189
0.042904999 -0.011732 0.21870001
0.043366 -0.011732 0.21870001
0.043807998 -0.011727 0.2186
0.044227999 -0.011716 0.2184
0.044668999 -0.011711 0.2183
0.045129001 -0.011711 0.2183
0.045568999 -0.011705 0.2182
0.046007998 -0.0117 0.2181
0.046468001 -0.0117 0.2181
0.046907 -0.011695 0.21799999
0.047366999 -0.011695 0.21799999
0.047827002 -0.011695 0.21799999
0.048287001 -0.011695 0.21799999
0.048746999 -0.011695 0.21799999
0.049206998 -0.011695 0.21799999
0.049667001 -0.011695 0.21799999
0.050126001 -0.011695 0.21799999
0.050609998 -0.0117 0.2181
0.051093001 -0.011705 0.2182
0.051577002 -0.011711 0.2183
0.052037999 -0.011711 0.2183
0.052522 -0.011716 0.2184
0.053032 -0.011727 0.2186
0.053541999 -0.011737 0.21879999
0.054003 -0.011737 0.21879999
0.054540001 -0.011754 0.2191
0.055052001 -0.011764 0.2193
0.055590998 -0.01178 0.21960001
0.056104999 -0.011791 0.2198
0.056620002 -0.011802 0.22
0.057084002 -0.011802 0.22
0.057601001 -0.011813 0.2202
0.058118001 -0.011823 0.22040001
0.058662999 -0.011839 0.2207
0.059181999 -0.01185 0.2209
0.059648 -0.01185 0.2209
0.060169 -0.011861 0.2211
0.060690001 -0.011872 0.22130001
0.061212 -0.011882 0.22149999
0.061735 -0.011893 0.2217
0.062203001 -0.011893 0.2217
0.062755004 -0.011909 0.222
0.063281 -0.01192 0.22220001
0.063807003 -0.011931 0.22239999
0.064333998 -0.011941 0.2226
0.064802997 -0.011941 0.2226
0.065332003 -0.011952 0.2228
0.065861002 -0.011963 0.223
0.066390999 -0.011974 0.22319999
0.066951998 -0.01199 0.2235
0.067423001 -0.01199 0.2235
0.067955002 -0.012 0.2237
0.068519004 -0.012016 0.22400001
0.069053002 -0.012027 0.2242
0.069619 -0.012043 0.2245
0.070092998 -0.012043 0.2245
0.070661001 -0.012059 0.22480001
0.071262002 -0.012081 0.2252
0.071832001 -0.012097 0.2255
0.072435997 -0.012118 0.22589999
0.072912998 -0.012118 0.22589999
0.073519997 -0.01214 0.2263
0.074161001 -0.012167 0.22679999
0.074771002 -0.012188 0.2272
0.075448997 -0.01222 0.2278
0.076163001 -0.012258 0.22849999
0.076880001 -0.012295 0.22920001
0.077362999 -0.012295 0.22920001
0.078117996 -0.012338 0.23
0.078809001 -0.01237 0.2306
0.079502001 -0.012403 0.23119999
0.080162004 -0.012429 0.2317
0.080825001 -0.012456 0.2322
0.081315003 -0.012456 0.2322
0.081946 -0.012478 0.2326
0.082578003 -0.012499 0.233
0.083140999 -0.01251 0.2332
0.083741002 -0.012526 0.2335
0.084269002 -0.012531 0.23360001
0.084762 -0.012531 0.23360001
0.085291997 -0.012537 0.23370001
0.085785002 -0.012537 0.23370001
0.086277999 -0.012537 0.23370001
0.086733997 -0.012531 0.23360001
0.087151997 -0.012521 0.2334
0.087568998 -0.01251 0.2332
0.088060997 -0.01251 0.2332
0.088477001 -0.012499 0.233
0.088891998 -0.012489 0.23280001
0.089383997 -0.012489 0.23280001
0.089836001 -0.012483 0.23270001
0.090327002 -0.012483 0.23270001
0.090856999 -0.012489 0.23280001
0.091544002 -0.012515 0.2333
0.092391998 -0.012564 0.2342
0.093837999 -0.012692 0.2366
-0.059622999 -0.013002 0.25229999
-0.058903001 -0.012961 0.25150001
-0.058373 -0.012961 0.25150001
-0.056738 -0.012714 0.2467
-0.056217998 -0.012714 0.2467
-0.055697002 -0.012714 0.2467
-0.053879999 -0.012415 0.24089999
-0.053371001 -0.012415 0.24089999
-0.052248999 -0.01227 0.23810001
-0.051486 -0.012209 0.2369
-0.050985999 -0.012209 0.2369
-0.050251 -0.012152 0.2358
-0.049754001 -0.012152 0.2358
-0.049109999 -0.012116 0.2351
-0.048510998 -0.01209 0.23459999
-0.047975 -0.01208 0.2344
-0.047479998 -0.01208 0.2344
-0.046946 -0.01207 0.2342
-0.046432 -0.012064 0.2341
-0.045899 -0.012054 0.2339
-0.045405 -0.012054 0.2339
-0.044872999 -0.012044 0.23370001
-0.044342 -0.012033 0.2335
-0.043793 -0.012018 0.2332
-0.043301001 -0.012018 0.2332
-0.042753998 -0.012003 0.23289999
-0.042172 -0.011977 0.2324
-0.041682001 -0.011977 0.2324
-0.041049998 -0.011936 0.2316
-0.040369 -0.011879 0.2305
-0.039882001 -0.011879 0.2305
-0.039071001 -0.011781 0.2286
-0.038589001 -0.011781 0.2286
-0.037873 -0.011709 0.2272
-0.037328001 -0.011688 0.22679999
-0.036800999 -0.011673 0.2265
-0.036323 -0.011673 0.2265
-0.035797998 -0.011657 0.2262
-0.035289001 -0.011647 0.226
-0.034812 -0.011647 0.226
-0.034304999 -0.011637 0.22579999
-0.033783998 -0.011621 0.2255
-0.033264 -0.011606 0.2252
-0.032788999 -0.011606 0.2252
-0.032285001 -0.011595 0.22499999
-0.031782001 -0.011585 0.22480001
-0.03128 -0.011575 0.2246
-0.030805999 -0.011575 0.2246
-0.030319 -0.01157 0.2245
-0.029818 -0.011559 0.2243
-0.029318999 -0.011549 0.22409999
-0.028845999 -0.011549 0.22409999
-0.028348001 -0.011539 0.22390001
-0.027851 -0.011528 0.2237
-0.027354 -0.011518 0.2235
-0.026883001 -0.011518 0.2235
-0.026376 -0.011503 0.22319999
-0.025882 -0.011492 0.223
-0.025389001 -0.011482 0.2228
-0.024917999 -0.011482 0.2228
-0.024426 -0.011472 0.2226
-0.023946 -0.011467 0.2225
-0.023456 -0.011456 0.22229999
-0.022987001 -0.011456 0.22229999
-0.022497 -0.011446 0.2221
-0.022019001 -0.011441 0.222
-0.02155 -0.011441 0.222
-0.021063 -0.01143 0.2218
-0.020577 -0.01142 0.2216
-0.020090999 -0.01141 0.22139999
-0.019624 -0.01141 0.22139999
-0.019148 -0.011405 0.22130001
-0.018673001 -0.0114 0.2212
-0.01819 -0.011389 0.221
-0.017723 -0.011389 0.221
-0.017248999 -0.011384 0.2209
-0.016775999 -0.011379 0.2208
-0.016302001 -0.011374 0.2207
-0.015822001 -0.011363 0.22050001
-0.015357 -0.011363 0.22050001
-0.014879 -0.011353 0.2203
-0.014401 -0.011343 0.2201
-0.013936 -0.011343 0.2201
-0.01346 -0.011333 0.2199
-0.012984 -0.011322 0.21969999
-0.012515 -0.011317 0.21960001
-0.012051 -0.011317 0.21960001
-0.011578 -0.011307 0.2194
-0.011115 -0.011307 0.2194
-0.010647 -0.011302 0.2193
-0.010184 -0.011302 0.2193
-0.009722 -0.011302 0.2193
-0.0092590004 -0.011302 0.2193
-0.0087959999 -0.011302 0.2193
-0.0083339997 -0.011302 0.2193
-0.0078710001 -0.011302 0.2193
-0.0074080001 -0.011302 0.2193
-0.0069459998 -0.011302 0.2193
-0.0064829998 -0.011302 0.2193
-0.006023 -0.011307 0.2194
-0.00556 -0.011307 0.2194
-0.0050969999 -0.011307 0.2194
-0.0046390002 -0.011317 0.21960001
-0.0041769999 -0.011322 0.21969999
-0.0037150001 -0.011327 0.2198
-0.0032550001 -0.011338 0.22
-0.0027900001 -0.011338 0.22
-0.002328 -0.011348 0.2202
-0.001865 -0.011353 0.2203
-0.001401 -0.011363 0.22050001
-0.00093699998 -0.011374 0.2207
-0.00047100001 -0.011374 0.2207
-6.0000002e-06 -0.011389 0.221
0.00046099999 -0.0114 0.2212
0.00092800002 -0.011405 0.22130001
0.001396 -0.011415 0.22149999
0.001864 -0.011415 0.22149999
0.0023320001 -0.01142 0.2216
0.0028019999 -0.01143 0.2218
0.003273 -0.011441 0.222
0.0037450001 -0.011451 0.22220001
0.0042130002 -0.011451 0.22220001
0.0046859998 -0.011461 0.22239999
0.005165 -0.011482 0.2228
0.0056480002 -0.011508 0.2233
0.0061349999 -0.011539 0.22390001
0.0066280002 -0.011575 0.2246
0.007121 -0.011606 0.2252
0.0075960001 -0.011606 0.2252
0.0080859996 -0.011626 0.2256
0.0085730003 -0.011642 0.22589999
0.0090579996 -0.011652 0.2261
0.0095389998 -0.011657 0.2262
0.010016 -0.011657 0.2262
0.010493 -0.011657 0.2262
0.01097 -0.011657 0.2262
0.011453 -0.011662 0.2263
0.011935 -0.011668 0.2264
0.012413 -0.011668 0.2264
0.012896 -0.011673 0.2265
0.013386 -0.011683 0.22669999
0.013871 -0.011688 0.22679999
0.014362 -0.011698 0.227
0.014841 -0.011698 0.227
0.015326 -0.011704 0.2271
0.015812 -0.011709 0.2272
0.016284 -0.011704 0.2271
0.016764 -0.011704 0.2271
0.017235 -0.011698 0.227
0.017713999 -0.011698 0.227
0.018185001 -0.011693 0.2269
0.018664001 -0.011693 0.2269
0.019142 -0.011693 0.2269
0.019621 -0.011693 0.2269
0.020109 -0.011698 0.227
0.020587999 -0.011698 0.227
0.021085 -0.011709 0.2272
0.021563999 -0.011709 0.2272
0.022043999 -0.011709 0.2272
0.022543 -0.011719 0.2274
0.023023 -0.011719 0.2274
0.023502 -0.011719 0.2274
0.023982 -0.011719 0.2274
0.024462 -0.011719 0.2274
0.024909001 -0.011704 0.2271
0.025388001 -0.011704 0.2271
0.02581 -0.011678 0.22660001
0.026241999 -0.011657 0.2262
0.026719 -0.011657 0.2262
0.02716 -0.011642 0.22589999
0.027624 -0.011637 0.22579999
0.028100999 -0.011637 0.22579999
0.028577 -0.011637 0.22579999
0.029053999 -0.011637 0.22579999
0.02953 -0.011637 0.22579999
0.030006001 -0.011637 0.22579999
0.030510001 -0.011647 0.226
0.030999999 -0.011652 0.2261
0.031477001 -0.011652 0.2261
0.031968001 -0.011657 0.2262
0.032430999 -0.011652 0.2261
0.032908 -0.011652 0.2261
0.033356 -0.011642 0.22589999
0.033787001 -0.011626 0.2256
0.034203 -0.011606 0.2252
0.034678001 -0.011606 0.2252
0.035106 -0.01159 0.22490001
0.035517 -0.01157 0.2245
0.035911001 -0.011544 0.22400001
0.036382999 -0.011544 0.22400001
0.036773998 -0.011518 0.2235
0.037161998 -0.011492 0.223
0.037632 -0.011492 0.223
0.037999999 -0.011461 0.22239999
0.038400002 -0.011441 0.222
0.038833998 -0.01143 0.2218
0.039230999 -0.01141 0.22139999
0.039625999 -0.011389 0.221
0.040002 -0.011363 0.22050001
0.040467001 -0.011363 0.22050001
0.040858001 -0.011343 0.2201
0.041246999 -0.011322 0.21969999
0.041653998 -0.011307 0.2194
0.042117 -0.011307 0.2194
0.042541001 -0.011296 0.2192
0.042964 -0.011286 0.219
0.043426 -0.011286 0.219
0.043848 -0.011276 0.21879999
0.044289 -0.011271 0.21870001
0.04473 -0.011266 0.2186
0.045171 -0.01126 0.2185
0.045632001 -0.01126 0.2185
0.046071999 -0.011255 0.2184
0.046510998 -0.01125 0.2183
0.046971999 -0.01125 0.2183
0.047432002 -0.01125 0.2183
0.047892999 -0.01125 0.2183
0.048353001 -0.01125 0.2183
0.048813999 -0.01125 0.2183
0.049274001 -0.01125 0.2183
0.049734998 -0.01125 0.2183
0.050218001 -0.011255 0.2184
0.050678998 -0.011255 0.2184
0.051162999 -0.01126 0.2185
0.051647998 -0.011266 0.2186
0.052108999 -0.011266 0.2186
0.052593999 -0.011271 0.21870001
0.053103998 -0.011281 0.2189
0.053615 -0.011291 0.2191
0.054150999 -0.011307 0.2194
0.054614 -0.011307 0.2194
0.055126999 -0.011317 0.21960001
0.055640999 -0.011327 0.2198
0.056155998 -0.011338 0.22
0.056697 -0.011353 0.2203
0.057162002 -0.011353 0.2203
0.057679001 -0.011363 0.22050001
0.058196999 -0.011374 0.2207
0.058715999 -0.011384 0.2209
0.059262 -0.0114 0.2212
0.059728999 -0.0114 0.2212
0.060249999 -0.01141 0.22139999
0.060772002 -0.01142 0.2216
0.061294999 -0.01143 0.2218
0.061818998 -0.011441 0.222
0.062286999 -0.011441 0.222
0.062812001 -0.011451 0.22220001
0.063366003 -0.011467 0.2225
0.063892998 -0.011477 0.2227
0.064420998 -0.011487 0.2229
0.064891003 -0.011487 0.2229
0.065420002 -0.011497 0.22310001
0.065949 -0.011508 0.2233
0.066480003 -0.011518 0.2235
0.067011997 -0.011528 0.2237
0.067483 -0.011528 0.2237
0.068047002 -0.011544 0.22400001
0.068580002 -0.011554 0.2242
0.069146 -0.01157 0.2245
0.069711998 -0.011585 0.22480001
0.070187002 -0.011585 0.22480001
0.070754997 -0.011601 0.2251
0.071324997 -0.011616 0.2254
0.071928002 -0.011637 0.22579999
0.072532997 -0.011657 0.2262
0.073138997 -0.011678 0.22660001
0.073616996 -0.011678 0.22660001
0.074225999 -0.011698 0.227
0.074901998 -0.011729 0.22759999
0.075548001 -0.011755 0.2281
0.076228999 -0.011786 0.2287
0.076947004 -0.011822 0.22939999
0.077431001 -0.011822 0.22939999
0.078117996 -0.011853 0.23
0.078809001 -0.011884 0.2306
0.079433002 -0.011905 0.23100001
0.080092996 -0.01193 0.2315
0.080686003 -0.011946 0.2318
0.081174999 -0.011946 0.2318
0.081804998 -0.011966 0.2322
0.082437001 -0.011987 0.2326
0.083034001 -0.012003 0.23289999
0.083561003 -0.012008 0.233
0.084053002 -0.012008 0.233
0.084616996 -0.012018 0.2332
0.085109003 -0.012018 0.2332
0.085601002 -0.012018 0.2332
0.086093001 -0.012018 0.2332
0.086548001 -0.012013 0.2331
0.087002002 -0.012008 0.233
0.087494001 -0.012008 0.233
0.087909997 -0.011997 0.23280001
0.088325001 -0.011987 0.2326
0.088777997 -0.011982 0.2325
0.089267999 -0.011982 0.2325
0.089720003 -0.011977 0.2324
0.090210997 -0.011977 0.2324
0.090662003 -0.011972 0.2323
0.091151997 -0.011972 0.2323
0.091642 -0.011972 0.2323
0.092171997 -0.011977 0.2324
0.092702001 -0.011982 0.2325
0.093313001 -0.011997 0.23280001
0.095092997 -0.012162 0.236
-0.059622999 -0.01247 0.25229999
-0.058903001 -0.01243 0.25150001
-0.058373 -0.01243 0.25150001
-0.056738 -0.012193 0.2467
-0.056217998 -0.012193 0.2467
-0.054862 -0.01201 0.243
-0.053879999 -0.011907 0.24089999
-0.053371001 -0.011907 0.24089999
-0.052248999 -0.011768 0.23810001
-0.051486 -0.011709 0.2369
-0.050985999 -0.011709 0.2369
-0.050251 -0.011654 0.2358
-0.049733002 -0.01165 0.2357
-0.049109999 -0.01162 0.2351
-0.048510998 -0.011595 0.23459999
-0.047975 -0.011585 0.2344
-0.047479998 -0.011585 0.2344
-0.046946 -0.011575 0.2342
-0.046432 -0.01157 0.2341
-0.045899 -0.011561 0.2339
-0.045405 -0.011561 0.2339
-0.044872999 -0.011551 0.23370001
-0.044342 -0.011541 0.2335
-0.043850001 -0.011541 0.2335
-0.043375999 -0.011546 0.23360001
-0.042808998 -0.011526 0.2332
-0.042245001 -0.011506 0.23280001
-0.041754 -0.011506 0.23280001
-0.041173998 -0.011481 0.2323
-0.040385999 -0.011397 0.2306
-0.039900001 -0.011397 0.2306
-0.039071001 -0.011299 0.2286
-0.038589001 -0.011299 0.2286
-0.037873 -0.011229 0.2272
-0.037328001 -0.01121 0.22679999
-0.036800999 -0.011195 0.2265
-0.036323 -0.011195 0.2265
-0.035797998 -0.01118 0.2262
-0.035289001 -0.01117 0.226
-0.034812 -0.01117 0.226
-0.034304999 -0.01116 0.22579999
-0.033783998 -0.011145 0.2255
-0.033264 -0.011131 0.2252
-0.032788999 -0.011131 0.2252
-0.032285001 -0.011121 0.22499999
-0.031782001 -0.011111 0.22480001
-0.03128 -0.011101 0.2246
-0.030805999 -0.011101 0.2246
-0.030319 -0.011096 0.2245
-0.029818 -0.011086 0.2243
-0.029318999 -0.011076 0.22409999
-0.028845999 -0.011076 0.22409999
-0.028348001 -0.011066 0.22390001
-0.027851 -0.011056 0.2237
-0.027354 -0.011047 0.2235
-0.026883001 -0.011047 0.2235
-0.026376 -0.011032 0.22319999
-0.025882 -0.011022 0.223
-0.025389001 -0.011012 0.2228
-0.024917999 -0.011012 0.2228
-0.024426 -0.011002 0.2226
-0.023946 -0.010997 0.2225
-0.023456 -0.010987 0.22229999
-0.022987001 -0.010987 0.22229999
-0.022497 -0.010977 0.2221
-0.022019001 -0.010972 0.222
-0.02155 -0.010972 0.222
-0.021063 -0.010963 0.2218
-0.020577 -0.010953 0.2216
-0.020090999 -0.010943 0.22139999
-0.019624 -0.010943 0.22139999
-0.019148 -0.010938 0.22130001
-0.018673001 -0.010933 0.2212
-0.01819 -0.010923 0.221
-0.017723 -0.010923 0.221
-0.017248999 -0.010918 0.2209
-0.016775999 -0.010913 0.2208
-0.016302001 -0.010908 0.2207
-0.015822001 -0.010898 0.22050001
-0.015357 -0.010898 0.22050001
-0.014879 -0.010888 0.2203
-0.014401 -0.010879 0.2201
-0.013936 -0.010879 0.2201
-0.01346 -0.010869 0.2199
-0.012984 -0.010859 0.21969999
-0.012515 -0.010854 0.21960001
-0.012051 -0.010854 0.21960001
-0.011578 -0.010844 0.2194
-0.011115 -0.010844 0.2194
-0.010647 -0.010839 0.2193
-0.010184 -0.010839 0.2193
-0.009722 -0.010839 0.2193
-0.0092590004 -0.010839 0.2193
-0.0087959999 -0.010839 0.2193
-0.0083339997 -0.010839 0.2193
-0.0078710001 -0.010839 0.2193
-0.0074080001 -0.010839 0.2193
-0.0069459998 -0.010839 0.2193
-0.0064829998 -0.010839 0.2193
-0.006023 -0.010844 0.2194
-0.00556 -0.010844 0.2194
-0.0050969999 -0.010844 0.2194
-0.0046390002 -0.010854 0.21960001
-0.0041769999 -0.010859 0.21969999
-0.0037150001 -0.010864 0.2198
-0.0032550001 -0.010874 0.22
-0.0027900001 -0.010874 0.22
-0.002328 -0.010883 0.2202
-0.001865 -0.010888 0.2203
-0.001401 -0.010898 0.22050001
-0.00093699998 -0.010908 0.2207
-0.00047100001 -0.010908 0.2207
-6.0000002e-06 -0.010923 0.221
0.00046099999 -0.010933 0.2212
0.00092899997 -0.010943 0.22139999
0.001397 -0.010953 0.2216
0.001864 -0.010953 0.2216
0.0023350001 -0.010967 0.2219
0.0028059999 -0.010977 0.2221
0.003277 -0.010987 0.22229999
0.0037499999 -0.010997 0.2225
0.0042190002 -0.010997 0.2225
0.0046950001 -0.011012 0.2228
0.0051739998 -0.011032 0.22319999
0.005655 -0.011051 0.2236
0.006143 -0.011081 0.2242
0.006637 -0.011116 0.22490001
0.007131 -0.011145 0.2255
0.0076060002 -0.011145 0.2255
0.0080930004 -0.01116 0.22579999
0.0085840002 -0.01118 0.2262
0.0090659996 -0.011185 0.2263
0.0095469998 -0.01119 0.2264
0.010029 -0.011195 0.2265
0.010507 -0.011195 0.2265
0.010985 -0.011195 0.2265
0.011468 -0.0112 0.22660001
0.011951 -0.011205 0.22669999
0.01243 -0.011205 0.22669999
0.012914 -0.01121 0.22679999
0.013398 -0.011215 0.2269
0.013889 -0.011224 0.2271
0.014374 -0.011229 0.2272
0.014854 -0.011229 0.2272
0.015346 -0.011239 0.2274
0.015826 -0.011239 0.2274
0.016306 -0.011239 0.2274
0.016786 -0.011239 0.2274
0.017258 -0.011234 0.2273
0.017729999 -0.011229 0.2272
0.018208999 -0.011229 0.2272
0.018688001 -0.011229 0.2272
0.019159 -0.011224 0.2271
0.019638 -0.011224 0.2271
0.020126 -0.011229 0.2272
0.020606 -0.011229 0.2272
0.021104001 -0.011239 0.2274
0.021583 -0.011239 0.2274
0.022063 -0.011239 0.2274
0.022562999 -0.011249 0.22759999
0.023053 -0.011254 0.2277
0.023544 -0.011259 0.2278
0.024024 -0.011259 0.2278
0.024483001 -0.011249 0.22759999
0.024941999 -0.011239 0.2274
0.025420999 -0.011239 0.2274
0.025844 -0.011215 0.2269
0.026265001 -0.01119 0.2264
0.026743 -0.01119 0.2264
0.027195999 -0.01118 0.2262
0.027649 -0.01117 0.226
0.028125999 -0.01117 0.226
0.028603001 -0.01117 0.226
0.029079 -0.01117 0.226
0.029556001 -0.01117 0.226
0.030045999 -0.011175 0.2261
0.030537 -0.01118 0.2262
0.031041 -0.01119 0.2264
0.031518999 -0.01119 0.2264
0.031996999 -0.01119 0.2264
0.032474 -0.01119 0.2264
0.032923002 -0.01118 0.2262
0.033399999 -0.01118 0.2262
0.033847 -0.01117 0.226
0.034263 -0.01115 0.2256
0.034738999 -0.01115 0.2256
0.035153002 -0.011131 0.2252
0.035565 -0.011111 0.22480001
0.035959002 -0.011086 0.2243
0.036432002 -0.011086 0.2243
0.036823001 -0.011061 0.2238
0.037211999 -0.011037 0.2233
0.037682999 -0.011037 0.2233
0.038068999 -0.011012 0.2228
0.038435001 -0.010982 0.22220001
0.038833998 -0.010963 0.2218
0.039301999 -0.010963 0.2218
0.03968 -0.010938 0.22130001
0.040056001 -0.010913 0.2208
0.040522002 -0.010913 0.2208
0.040913999 -0.010893 0.22040001
0.041303001 -0.010874 0.22
0.041710999 -0.010859 0.21969999
0.042174 -0.010859 0.21969999
0.042599 -0.010849 0.21950001
0.043023001 -0.010839 0.2193
0.043446001 -0.010829 0.2191
0.043908 -0.010829 0.2191
0.044349998 -0.010824 0.219
0.044771001 -0.010814 0.21879999
0.045233 -0.010814 0.21879999
0.045694001 -0.010814 0.21879999
0.046114001 -0.010804 0.2186
0.046574999 -0.010804 0.2186
0.047036 -0.010804 0.2186
0.047497001 -0.010804 0.2186
0.047958001 -0.010804 0.2186
0.048420001 -0.010804 0.2186
0.048881002 -0.010804 0.2186
0.049341999 -0.010804 0.2186
0.049826 -0.010809 0.21870001
0.050287001 -0.010809 0.21870001
0.050749 -0.010809 0.21870001
0.051233999 -0.010814 0.21879999
0.051718999 -0.010819 0.2189
0.052181002 -0.010819 0.2189
0.052666999 -0.010824 0.219
0.053176999 -0.010834 0.2192
0.053688999 -0.010844 0.2194
0.054200999 -0.010854 0.21960001
0.054664001 -0.010854 0.21960001
0.055178002 -0.010864 0.2198
0.055716999 -0.010879 0.2201
0.056233 -0.010888 0.2203
0.056749001 -0.010898 0.22050001
0.057213999 -0.010898 0.22050001
0.057758 -0.010913 0.2208
0.058276001 -0.010923 0.221
0.058796 -0.010933 0.2212
0.059316002 -0.010943 0.22139999
0.059783 -0.010943 0.22139999
0.060304999 -0.010953 0.2216
0.060826998 -0.010963 0.2218
0.061349999 -0.010972 0.222
0.061902002 -0.010987 0.22229999
0.062371001 -0.010987 0.22229999
0.062896997 -0.010997 0.2225
0.063451998 -0.011012 0.2228
0.063979 -0.011022 0.223
0.064507 -0.011032 0.22319999
0.064978004 -0.011032 0.22319999
0.065508001 -0.011042 0.2234
0.066009 -0.011047 0.2235
0.066569 -0.011061 0.2238
0.067101002 -0.011071 0.22400001
0.067574002 -0.011071 0.22400001
0.068107001 -0.011081 0.2242
0.068641998 -0.011091 0.2244
0.069206998 -0.011106 0.2247
0.069774002 -0.011121 0.22499999
0.070248999 -0.011121 0.22499999
0.07085 -0.01114 0.2254
0.071419999 -0.011155 0.22570001
0.072024003 -0.011175 0.2261
0.072628997 -0.011195 0.2265
0.073236004 -0.011215 0.2269
0.073715001 -0.011215 0.2269
0.074357003 -0.011239 0.2274
0.075001001 -0.011264 0.2279
0.075646996 -0.011289 0.22840001
0.076296002 -0.011313 0.2289
0.076980002 -0.011343 0.2295
0.077463999 -0.011343 0.2295
0.078117996 -0.011368 0.23
0.078775004 -0.011393 0.2305
0.079397999 -0.011412 0.2309
0.079989001 -0.011427 0.23119999
0.080615997 -0.011447 0.2316
0.081105001 -0.011447 0.2316
0.081698999 -0.011462 0.23190001
0.082295001 -0.011477 0.2322
0.082855999 -0.011486 0.2324
0.083417997 -0.011496 0.2326
0.083908997 -0.011496 0.2326
0.084435999 -0.011501 0.23270001
0.084963001 -0.011506 0.23280001
0.085454002 -0.011506 0.23280001
0.085946001 -0.011506 0.23280001
0.086437002 -0.011506 0.23280001
0.086889997 -0.011501 0.23270001
0.087380998 -0.011501 0.23270001
0.087834999 -0.011496 0.2326
0.088287003 -0.011491 0.2325
0.088739999 -0.011486 0.2324
0.089230001 -0.011486 0.2324
0.089681998 -0.011481 0.2323
0.090172 -0.011481 0.2323
0.090622999 -0.011477 0.2322
0.091113001 -0.011477 0.2322
0.091484003 -0.011462 0.23190001
0.091934003 -0.011457 0.2318
0.092422999 -0.011457 0.2318
0.092951998 -0.011462 0.23190001
0.093441002 -0.011462 0.23190001
0.093970999 -0.011467 0.23199999
0.094705001 -0.011496 0.2326
-0.059647001 -0.011942 0.25240001
-0.058974002 -0.011914 0.2518
-0.058442 -0.011914 0.2518
-0.057128999 -0.011753 0.2484
-0.056605 -0.011753 0.2484
-0.054862 -0.011498 0.243
-0.054349001 -0.011498 0.243
-0.053837001 -0.011498 0.243
-0.052402001 -0.011299 0.2388
-0.051638 -0.011242 0.2376
-0.051135998 -0.011242 0.2376
-0.050422002 -0.011195 0.2366
-0.049733002 -0.011152 0.2357
-0.049236 -0.011152 0.2357
-0.048613999 -0.011124 0.2351
-0.048036002 -0.011105 0.23469999
-0.047541 -0.011105 0.23469999
-0.047006 -0.011095 0.23450001
-0.046491001 -0.011091 0.2344
-0.045958001 -0.011081 0.2342
-0.045464002 -0.011081 0.2342
-0.044930998 -0.011072 0.234
-0.044399001 -0.011062 0.23379999
-0.043869 -0.011053 0.23360001
-0.043375999 -0.011053 0.23360001
-0.042808998 -0.011034 0.2332
-0.042245001 -0.011015 0.23280001
-0.041754 -0.011015 0.23280001
-0.041173998 -0.010991 0.2323
-0.040385999 -0.010911 0.2306
-0.039900001 -0.010911 0.2306
-0.039037 -0.010807 0.22840001
-0.038555 -0.010807 0.22840001
-0.037857 -0.010745 0.2271
-0.037294999 -0.010722 0.22660001
-0.036784999 -0.010712 0.2264
-0.036307 -0.010712 0.2264
-0.035797998 -0.010703 0.2262
-0.035273999 -0.010689 0.22589999
-0.034797002 -0.010689 0.22589999
-0.034274999 -0.010674 0.2256
-0.033753999 -0.01066 0.2253
-0.033248998 -0.010651 0.2251
-0.032774001 -0.010651 0.2251
-0.032256 -0.010637 0.22480001
-0.031753998 -0.010627 0.2246
-0.031252 -0.010618 0.2244
-0.030779 -0.010618 0.2244
-0.030292001 -0.010613 0.2243
-0.029792 -0.010603 0.22409999
-0.029293001 -0.010594 0.22390001
-0.028821001 -0.010594 0.22390001
-0.028323 -0.010584 0.2237
-0.027826 -0.010575 0.2235
-0.027318001 -0.010561 0.22319999
-0.026846999 -0.010561 0.22319999
-0.026351999 -0.010551 0.223
-0.025859 -0.010542 0.2228
-0.025389001 -0.010542 0.2228
-0.024896 -0.010532 0.2226
-0.024405001 -0.010523 0.22239999
-0.023914 -0.010514 0.22220001
-0.023445001 -0.010514 0.22220001
-0.022965999 -0.010509 0.2221
-0.022476999 -0.010499 0.2219
-0.021988999 -0.01049 0.2217
-0.021521 -0.01049 0.2217
-0.021043999 -0.010485 0.2216
-0.020558 -0.010476 0.22139999
-0.020073 -0.010466 0.2212
-0.019606 -0.010466 0.2212
-0.019130999 -0.010461 0.2211
-0.018656 -0.010457 0.221
-0.018181 -0.010452 0.2209
-0.017715 -0.010452 0.2209
-0.017240999 -0.010447 0.2208
-0.016759999 -0.010438 0.22059999
-0.016287999 -0.010433 0.22050001
-0.015822001 -0.010433 0.22050001
-0.015343 -0.010424 0.2203
-0.014865 -0.010414 0.2201
-0.014388 -0.010405 0.2199
-0.013924 -0.010405 0.2199
-0.013447 -0.010395 0.21969999
-0.012972 -0.010386 0.21950001
-0.012503 -0.010381 0.2194
-0.01204 -0.010381 0.2194
-0.011572 -0.010376 0.2193
-0.011105 -0.010372 0.2192
-0.010642 -0.010372 0.2192
-0.010175 -0.010367 0.2191
-0.0097129997 -0.010367 0.2191
-0.0092510004 -0.010367 0.2191
-0.0087879999 -0.010367 0.2191
-0.0083259996 -0.010367 0.2191
-0.0078670001 -0.010372 0.2192
-0.0074049998 -0.010372 0.2192
-0.0069419998 -0.010372 0.2192
-0.00648 -0.010372 0.2192
-0.0060180002 -0.010372 0.2192
-0.0055579999 -0.010376 0.2193
-0.0050949999 -0.010376 0.2193
-0.0046339999 -0.010381 0.2194
-0.0041749999 -0.01039 0.21960001
-0.0037140001 -0.010395 0.21969999
-0.0032520001 -0.0104 0.2198
-0.002788 -0.0104 0.2198
-0.002325 -0.010405 0.2199
-0.001863 -0.010414 0.2201
-0.001401 -0.010428 0.22040001
-0.00093600003 -0.010438 0.22059999
-0.00047100001 -0.010438 0.22059999
-6.0000002e-06 -0.010452 0.2209
0.00046099999 -0.010466 0.2212
0.00092899997 -0.010476 0.22139999
0.001397 -0.010485 0.2216
0.001864 -0.010485 0.2216
0.0023350001 -0.010499 0.2219
0.0028059999 -0.010509 0.2221
0.003277 -0.010518 0.22229999
0.0037499999 -0.010528 0.2225
0.0042190002 -0.010528 0.2225
0.0046950001 -0.010542 0.2228
0.0051739998 -0.010561 0.22319999
0.005655 -0.01058 0.2236
0.006143 -0.010608 0.2242
0.006637 -0.010641 0.22490001
0.007131 -0.01067 0.2255
0.0076060002 -0.01067 0.2255
0.0080930004 -0.010684 0.22579999
0.0085840002 -0.010703 0.2262
0.0090659996 -0.010707 0.2263
0.0095469998 -0.010712 0.2264
0.010029 -0.010717 0.2265
0.010507 -0.010717 0.2265
0.010985 -0.010717 0.2265
0.011468 -0.010722 0.22660001
0.011951 -0.010726 0.22669999
0.01243 -0.010726 0.22669999
0.012914 -0.010731 0.22679999
0.013398 -0.010736 0.2269
0.013889 -0.010745 0.2271
0.014374 -0.01075 0.2272
0.014854 -0.01075 0.2272
0.015346 -0.01076 0.2274
0.015826 -0.01076 0.2274
0.016306 -0.01076 0.2274
0.016786 -0.01076 0.2274
0.017258 -0.010755 0.2273
0.017729999 -0.01075 0.2272
0.018208999 -0.01075 0.2272
0.018688001 -0.01075 0.2272
0.019159 -0.010745 0.2271
0.019638 -0.010745 0.2271
0.020126 -0.01075 0.2272
0.020606 -0.01075 0.2272
0.021104001 -0.01076 0.2274
0.021583 -0.01076 0.2274
0.022063 -0.01076 0.2274
0.022562999 -0.010769 0.22759999
0.023053 -0.010774 0.2277
0.023544 -0.010778 0.2278
0.024024 -0.010778 0.2278
0.024526 -0.010788 0.228
0.024986001 -0.010778 0.2278
0.025466001 -0.010778 0.2278
0.02589 -0.010755 0.2273
0.026311001 -0.010731 0.22679999
0.026753999 -0.010717 0.2265
0.027232001 -0.010717 0.2265
0.027686 -0.010707 0.2263
0.028162999 -0.010707 0.2263
0.028641 -0.010707 0.2263
0.029118 -0.010707 0.2263
0.029595001 -0.010707 0.2263
0.030086 -0.010712 0.2264
0.030591 -0.010722 0.22660001
0.031068999 -0.010722 0.22660001
0.031575002 -0.010731 0.22679999
0.032053001 -0.010731 0.22679999
0.032517001 -0.010726 0.22669999
0.032981001 -0.010722 0.22660001
0.033459 -0.010722 0.22660001
0.033891998 -0.010707 0.2263
0.034324002 -0.010693 0.226
0.034738999 -0.010674 0.2256
0.035215002 -0.010674 0.2256
0.035627998 -0.010655 0.2252
0.036006998 -0.010627 0.2246
0.036481 -0.010627 0.2246
0.036889002 -0.010608 0.2242
0.037262 -0.01058 0.2236
0.037733998 -0.01058 0.2236
0.038120002 -0.010556 0.22310001
0.038504001 -0.010532 0.2226
0.038885999 -0.010509 0.2221
0.039354999 -0.010509 0.2221
0.039733998 -0.010485 0.2216
0.040128998 -0.010466 0.2212
0.040594999 -0.010466 0.2212
0.040987998 -0.010447 0.2208
0.041379001 -0.010428 0.22040001
0.041768 -0.010409 0.22
0.042231999 -0.010409 0.22
0.042656999 -0.0104 0.2198
0.043081999 -0.01039 0.21960001
0.043505002 -0.010381 0.2194
0.043968 -0.010381 0.2194
0.044411 -0.010376 0.2193
0.044853002 -0.010372 0.2192
0.045274001 -0.010362 0.219
0.045736 -0.010362 0.219
0.046197999 -0.010362 0.219
0.046638999 -0.010357 0.2189
0.047100998 -0.010357 0.2189
0.047561999 -0.010357 0.2189
0.048023999 -0.010357 0.2189
0.048486002 -0.010357 0.2189
0.048948001 -0.010357 0.2189
0.049431998 -0.010362 0.219
0.049894001 -0.010362 0.219
0.050356001 -0.010362 0.219
0.050818 -0.010362 0.219
0.051304001 -0.010367 0.2191
0.051789999 -0.010372 0.2192
0.052251998 -0.010372 0.2192
0.052739002 -0.010376 0.2193
0.05325 -0.010386 0.21950001
0.053762 -0.010395 0.21969999
0.054274999 -0.010405 0.2199
0.054738998 -0.010405 0.2199
0.055252999 -0.010414 0.2201
0.055792999 -0.010428 0.22040001
0.056309 -0.010438 0.22059999
0.056825999 -0.010447 0.2208
0.057291999 -0.010447 0.2208
0.057810001 -0.010457 0.221
0.058329001 -0.010466 0.2212
0.058848999 -0.010476 0.22139999
0.059395999 -0.01049 0.2217
0.059918001 -0.010499 0.2219
0.060385998 -0.010499 0.2219
0.060908999 -0.010509 0.2221
0.061461002 -0.010523 0.22239999
0.061985999 -0.010532 0.2226
0.062510997 -0.010542 0.2228
0.062982 -0.010542 0.2228
0.063509002 -0.010551 0.223
0.064035997 -0.010561 0.22319999
0.064565003 -0.01057 0.2234
0.065095 -0.01058 0.2236
0.065566003 -0.01058 0.2236
0.066096999 -0.010589 0.2238
0.066629 -0.010599 0.22400001
0.067161001 -0.010608 0.2242
0.067694999 -0.010618 0.2244
0.068167999 -0.010618 0.2244
0.068732999 -0.010632 0.2247
0.069300003 -0.010646 0.22499999
0.069867 -0.01066 0.2253
0.070468001 -0.010679 0.22570001
0.070943996 -0.010679 0.22570001
0.071515001 -0.010693 0.226
0.072118998 -0.010712 0.2264
0.072724998 -0.010731 0.22679999
0.073333003 -0.01075 0.2272
0.073812 -0.01075 0.2272
0.074455 -0.010774 0.2277
0.075099997 -0.010797 0.2282
0.075746998 -0.010821 0.2287
0.076396003 -0.010845 0.22920001
0.077013999 -0.010864 0.2296
0.077497996 -0.010864 0.2296
0.078152001 -0.010887 0.23010001
0.078775004 -0.010906 0.2305
0.079397999 -0.010925 0.2309
0.079989001 -0.010939 0.23119999
0.080615997 -0.010958 0.2316
0.081105001 -0.010958 0.2316
0.081698999 -0.010972 0.23190001
0.082295001 -0.010987 0.2322
0.082855999 -0.010996 0.2324
0.083417997 -0.011006 0.2326
0.083908997 -0.011006 0.2326
0.084435999 -0.01101 0.23270001
0.084963001 -0.011015 0.23280001
0.085454002 -0.011015 0.23280001
0.085946001 -0.011015 0.23280001
0.086437002 -0.011015 0.23280001
0.086889997 -0.01101 0.23270001
0.087380998 -0.01101 0.23270001
0.087834999 -0.011006 0.2326
0.088287003 -0.011001 0.2325
0.088739999 -0.010996 0.2324
0.089230001 -0.010996 0.2324
0.089681998 -0.010991 0.2323
0.090172 -0.010991 0.2323
0.090622999 -0.010987 0.2322
0.091113001 -0.010987 0.2322
0.091484003 -0.010972 0.23190001
0.091934003 -0.010968 0.2318
0.092422999 -0.010968 0.2318
0.092951998 -0.010972 0.23190001
0.093441002 -0.010972 0.23190001
0.093970999 -0.010977 0.23199999
0.094705001 -0.011006 0.2326
-0.059622999 -0.011405 0.25229999
