ply
format ascii 1.0
comment PCL generated
element vertex 231
property float x
property float y
property float z
element camera 1
property float view_px
property float view_py
property float view_pz
property float x_axisx
property float x_axisy
property float x_axisz
property float y_axisx
property float y_axisy
property float y_axisz
property float z_axisx
property float z_axisy
property float z_axisz
property float focal
property float scalex
property float scaley
property float centerx
property float centery
property int viewportx
property int viewporty
property float k1
property float k2
end_header
0.038769402 -0.02128181 0.21943516
0.045177806 -0.022210926 0.21842195
0.055099763 -0.022832071 0.21855733
0.062577419 -0.022588903 0.21937461
-0.011771629 -0.011103203 0.21955146
-0.0067598796 -0.011362279 0.21950674
0.038643923 -0.016998552 0.21915059
0.045044888 -0.015244902 0.21768659
0.054499824 -0.015649071 0.21804911
0.061961055 -0.018058982 0.21933694
-0.012350962 -0.0068794964 0.21937802
-0.0055493526 -0.0067221993 0.21926676
0.04687937 -0.0091626188 0.21944608
0.051706471 -0.0092164986 0.21958126
0.028173434 -0.040854741 0.2296
0.031336855 -0.040751997 0.22956429
-0.010677 -0.030279001 0.2299
-0.0015045163 -0.031276032 0.22905807
0.0062669641 -0.031820204 0.22759184
0.015163612 -0.033030346 0.22709228
0.025416866 -0.034703393 0.22677532
0.034696274 -0.034563843 0.22703409
0.045064032 -0.033532403 0.22618103
0.055091642 -0.03395677 0.22649257
0.064990997 -0.03406975 0.22613227
0.074963547 -0.034173068 0.22686936
0.081639841 -0.033547781 0.22866809
-0.023168236 -0.021359129 0.22895491
-0.014073666 -0.024037322 0.22785687
-0.0047713374 -0.024654288 0.22642449
0.005183605 -0.025000082 0.22376493
0.015104598 -0.02500171 0.22292896
0.024951704 -0.024850441 0.22269225
0.034791522 -0.025167156 0.22216614
0.044786025 -0.027233757 0.22173777
0.054901596 -0.027838908 0.22174557
0.065977857 -0.025956346 0.22115497
0.074683905 -0.025185911 0.22446513
0.081028931 -0.027439944 0.2292722
-0.034025643 -0.013877411 0.22723788
-0.024943726 -0.014818467 0.22506095
-0.015302263 -0.015341175 0.22285809
-0.0044614607 -0.015763685 0.22151926
0.0051261736 -0.015038939 0.22269283
0.01502156 -0.01515386 0.2251258
0.025051858 -0.015042389 0.22508244
0.034449007 -0.014582681 0.22314891
0.040830351 -0.010864287 0.22049285
0.058214881 -0.011671068 0.22063859
0.065516017 -0.014336511 0.22212827
0.073874839 -0.015068172 0.2261003
-0.03358297 -0.0054215225 0.22617473
-0.0249027 -0.0049656038 0.22321717
-0.016188515 -0.0041623455 0.22106747
-0.0038598094 -0.0025785938 0.22102946
0.004851013 -0.0051023602 0.22582759
0.014502647 -0.007202425 0.22859184
0.025158336 -0.0071025901 0.22866039
0.035655424 -0.0057701413 0.22737142
0.044580184 -0.004490294 0.2225094
0.055121347 -0.0047669606 0.22243525
0.064952761 -0.0049582366 0.22568448
0.073084392 -0.0061249244 0.22859851
0.086540274 -0.0050722789 0.22790308
0.092199296 -0.0061401022 0.22788695
-0.032000955 0.0020612814 0.22888732
-0.024476789 0.0043806005 0.2273389
-0.015040566 0.0050106295 0.22506505
-0.0049331351 0.0049872138 0.22406168
0.0034820195 0.0042298068 0.22807415
0.039162181 0.00093205884 0.22920588
0.045115892 0.0031873919 0.22643629
0.054445181 0.0028970523 0.22549823
0.063247904 0.0012996084 0.22750945
-0.021042613 0.010926384 0.22942308
-0.014139834 0.012849774 0.22862622
-0.0049989657 0.01306716 0.2271767
0.0011017743 0.012114452 0.22888066
0.047702063 -0.051286876 0.23977084
0.054782968 -0.051513378 0.2397017
0.065354601 -0.051782481 0.23963958
0.07453905 -0.051205762 0.2395523
0.082601577 -0.050498579 0.23959474
-0.010099 -0.040587999 0.2392
-0.0031527178 -0.040864311 0.23571278
0.0058294181 -0.041597903 0.23479739
0.015250921 -0.042496428 0.23452803
0.024480902 -0.043127578 0.23287384
0.035624899 -0.044076249 0.23370352
0.045235578 -0.044608288 0.23443423
0.054956652 -0.044657938 0.23397812
0.064922892 -0.044527169 0.23355851
0.07497374 -0.044564076 0.23354672
0.084987253 -0.044612702 0.23435724
0.092019476 -0.043318026 0.23521985
-0.050993174 -0.032972425 0.23956187
-0.047822025 -0.031893805 0.23956218
-0.033679616 -0.032416031 0.23852779
-0.02475683 -0.033574916 0.23722011
-0.015108233 -0.034703169 0.23564783
-0.0051607033 -0.035150543 0.23155047
0.0046216603 -0.036460735 0.23234223
0.014505978 -0.037814513 0.23234788
0.021205302 -0.037998836 0.23169999
0.038405094 -0.039271288 0.23170952
0.045051731 -0.038695354 0.231609
0.054755587 -0.039039731 0.23130266
0.064938039 -0.039127037 0.23058747
0.075000599 -0.039098375 0.23037203
0.086167186 -0.036363516 0.23400645
0.092916153 -0.036681224 0.23820485
-0.050962757 -0.024764804 0.23863044
-0.045343883 -0.024920741 0.23798752
-0.034959894 -0.025042487 0.23551355
-0.025516 -0.025743091 0.23354712
-0.01743393 -0.027847746 0.23238437
-0.0058147102 -0.029298911 0.23006453
0.079660751 -0.020852249 0.23025
0.084497012 -0.024421047 0.23321897
-0.051331356 -0.0150765 0.236091
-0.044966232 -0.014942779 0.23351212
-0.037211131 -0.017565513 0.23092876
0.07912004 -0.014230894 0.23072125
0.084889702 -0.014537757 0.23378757
0.091927908 -0.01178722 0.23281297
-0.050780602 -0.0077261995 0.23875596
-0.044719223 -0.0052692504 0.23721482
-0.038389076 -0.003725474 0.23311155
0.0092905629 -0.0012998752 0.23039374
0.015600475 -0.0023942953 0.23089083
0.024876971 -0.0021122561 0.23097724
0.03286954 -0.0014161998 0.23051743
0.077679209 -0.0055653178 0.2303182
0.083529063 -0.007508663 0.23078853
0.092226766 -0.0094117345 0.23067057
-0.043663453 0.0067912918 0.23921983
-0.035366394 0.0058436217 0.23429315
-0.027638135 0.0084463283 0.23073615
0.0075806812 0.0059965686 0.23146363
0.014835899 0.0032691502 0.23304982
0.024667716 0.0023559479 0.23307057
0.034951188 0.0021723551 0.23177847
0.040286999 0.0051330002 0.23010001
-0.051646024 0.013848215 0.23673341
-0.045253661 0.014464385 0.2351892
-0.035362847 0.01300462 0.23462063
-0.025191393 0.01292877 0.2319928
-0.018199617 0.014748574 0.23041062
0.0042199707 0.010856797 0.23069413
0.017883666 -0.060471494 0.2494
0.056858398 -0.060322333 0.24972664
0.065006681 -0.060401764 0.24832727
0.075225607 -0.060418896 0.24879639
0.084105045 -0.060686052 0.24855497
-0.013322162 -0.050641082 0.24882403
-0.0043968512 -0.051661365 0.24840115
0.0053412039 -0.052714735 0.24776119
0.015412895 -0.053299863 0.24600214
0.0251447 -0.053939994 0.24519201
0.034986231 -0.05461283 0.24436681
0.044335324 -0.055385783 0.2445506
0.055053722 -0.056505084 0.24500427
0.0646891 -0.056924775 0.24484
0.075140417 -0.056078631 0.24382432
0.084715091 -0.054968338 0.24341993
0.090939894 -0.051735647 0.24125716
-0.041611202 -0.040512502 0.24961999
-0.03323802 -0.04186327 0.24632315
-0.02456345 -0.043705307 0.24567893
-0.015039534 -0.044886723 0.24452519
-0.0051929182 -0.045728765 0.24294662
0.004918071 -0.046740737 0.24157804
0.014585041 -0.047790881 0.24093969
0.025087092 -0.048394881 0.24063796
0.034301274 -0.049141806 0.24012935
0.041659199 -0.049613666 0.24005999
0.090235002 -0.049899999 0.2403
-0.053342812 -0.034325313 0.24405007
-0.0440102 -0.034724001 0.24125296
-0.035742808 -0.036794715 0.24176507
-0.026053902 -0.038781345 0.24240859
-0.018108416 -0.039595831 0.24110003
0.089666329 -0.030613333 0.24013333
0.093615569 -0.031952042 0.24066874
-0.053872559 -0.026129549 0.24543642
-0.042453002 -0.029404366 0.24003635
0.089847907 -0.025241202 0.24061999
0.094605729 -0.025176298 0.24330285
-0.054995965 -0.012056447 0.24429211
0.089859001 -0.01773325 0.24065
0.09193477 -0.018399296 0.24304444
-0.052734833 -0.0042435797 0.24454997
-0.04809989 -0.00089318515 0.24060743
-0.051230203 0.0048724576 0.2449251
-0.045381762 0.0045551951 0.2414573
-0.039394625 0.0057362504 0.24012499
-0.052926335 0.011250556 0.24222223
-0.0030645235 -0.061627291 0.25773335
0.0070188339 -0.060909223 0.25497663
0.015510626 -0.061168939 0.25338405
0.025171507 -0.062128194 0.25392774
0.034990516 -0.06182237 0.25287917
0.045230392 -0.062741861 0.25317818
0.05428341 -0.062503546 0.25283977
0.065592565 -0.062850028 0.25252497
0.074776076 -0.063096687 0.2526758
0.082550533 -0.063230768 0.25446922
-0.033779837 -0.050864659 0.25683951
-0.024613567 -0.051826145 0.25571141
-0.01494463 -0.054235209 0.25526473
-0.0048814197 -0.056791428 0.25502464
0.0048227641 -0.057859097 0.25380081
0.014384086 -0.058500327 0.25287551
0.024354523 -0.059155375 0.25153959
0.034898087 -0.059616089 0.25032726
-0.051932219 -0.042914037 0.25505853
-0.044861212 -0.044540834 0.25436312
-0.035572894 -0.04621423 0.25283438
-0.02650368 -0.048437543 0.25162449
-0.019027501 -0.0496305 0.25045002
-0.060574003 -0.034590889 0.25759998
-0.057377417 -0.034102488 0.2542465
-0.047573604 -0.039549001 0.25051999
-0.057965707 -0.026907833 0.25387505
-0.060445499 -0.010611 0.25240001
-0.058565598 -0.012140717 0.25139686
-0.060459945 -0.0058643692 0.25371051
-0.057451118 -0.0049022185 0.25192931
-0.056049634 0.0017557036 0.25291726
-0.014002 -0.058309399 0.26116002
-0.062012132 -0.033063665 0.26224667
0 0 0 1 0 0 0 1 0 0 0 1 0 0 0 0 0 231 1 0 0
