ply
format ascii 1.0
comment PCL generated
element vertex 1319
property float x
property float y
property float z
element camera 0
property float view_px
property float view_py
property float view_pz
property float x_axisx
property float x_axisy
property float x_axisz
property float y_axisx
property float y_axisy
property float y_axisz
property float z_axisx
property float z_axisy
property float z_axisz
property float focal
property float scalex
property float scaley
property float centerx
property float centery
property int viewportx
property int viewporty
property float k1
property float k2
end_header
0.058795143 -0.036319822 0.47219956
0.059785403 -0.036312256 0.47207457
0.060759261 -0.036295097 0.47182459
0.06174868 -0.03628758 0.4716996
0.062721163 -0.036270477 0.47144964
0.063709721 -0.036263008 0.47132465
0.064697988 -0.036255568 0.47119966
0.065685995 -0.036248155 0.47107467
0.066673711 -0.036240775 0.47094968
0.067661144 -0.036233414 0.47082469
0.068666562 -0.036235705 0.47082469
0.069672227 -0.036238022 0.47082469
0.070659414 -0.03623075 0.47069973
0.071665369 -0.036233127 0.47069973
0.072671607 -0.03623553 0.47069973
0.073697701 -0.036247585 0.47082469
0.0747246 -0.036259677 0.47094968
0.075732231 -0.036262166 0.47094968
0.076760523 -0.036274314 0.47107467
0.077810273 -0.036296122 0.47132465
0.078840517 -0.036308337 0.47144964
0.079892747 -0.036330208 0.4716996
0.080924936 -0.036342483 0.47182459
0.081979685 -0.036364429 0.47207457
0.083035812 -0.036386397 0.47232455
0.084115595 -0.036418039 0.47269949
0.08521983 -0.036459349 0.47319946
0.086372085 -0.036519948 0.47394937
0.087620094 -0.036619127 0.47519922
0.08894375 -0.036747243 0.47682405
0.089897402 -0.036721285 0.4764491
-0.10707127 -0.036592945 0.48944771
-0.10597137 -0.036572162 0.48919773
-0.10487287 -0.03655142 0.48894778
-0.10377572 -0.036530714 0.4886978
-0.10267996 -0.036510043 0.48844782
-0.10161157 -0.036498759 0.48832282
-0.10051828 -0.036478166 0.48807287
-0.099451803 -0.036466952 0.48794788
-0.098360926 -0.036446426 0.4876979
-0.097271428 -0.036425952 0.48744792
-0.096183263 -0.036405507 0.48719797
-0.095096424 -0.036385097 0.48694798
-0.094010927 -0.036364727 0.486698
-0.092926733 -0.036344383 0.48644802
-0.091843873 -0.03632408 0.48619807
-0.09076234 -0.036303811 0.48594809
-0.024380442 -0.038686242 0.5184446
-0.023307992 -0.038723741 0.51894456
-0.022238793 -0.038770594 0.51956952
-0.02115678 -0.038798813 0.51994443
-0.020063544 -0.038808405 0.52006942
-0.018969778 -0.03881802 0.52019441
-0.017879775 -0.03883699 0.52044439
-0.016796768 -0.038874637 0.52094436
-0.015711632 -0.038912304 0.52144432
-0.014627874 -0.038959321 0.52206922
-0.013541456 -0.039006367 0.52269417
-0.012446429 -0.03903478 0.52306914
-0.011349794 -0.039063212 0.52344406
-0.010249102 -0.039082341 0.52369404
-0.0091473218 -0.0391015 0.52394402
-0.0080444533 -0.039120685 0.524194
-0.0069404915 -0.039139889 0.52444398
-0.005836823 -0.039168447 0.52481896
-0.0047270218 -0.039159711 0.52469397
-0.0036202888 -0.03917899 0.52494395
-0.0025118513 -0.039188951 0.52506888
-0.0014028335 -0.03919895 0.52519387
-0.00029330116 -0.039218299 0.52544385
0.00081773527 -0.039256323 0.52594382
0.0019336976 -0.039350349 0.52719367
0.0030506721 -0.039388429 0.52769363
0.004185617 -0.0395758 0.53019333
0.005301178 -0.0395393 0.52969342
0.0063965213 -0.039390855 0.52769363
0.007474592 -0.039195772 0.52506888
0.0085927332 -0.039233964 0.52556884
0.0097523052 -0.039430816 0.52819359
0.010915344 -0.039599687 0.53044331
0.012042611 -0.039619304 0.53069329
0.013099716 -0.039424326 0.5280686
0.01411217 -0.039136041 0.524194
0.017697476 -0.035240266 0.47194958
0.018696139 -0.03524128 0.47194958
0.019694911 -0.035242319 0.47194958
0.020693788 -0.035243377 0.47194958
0.021692781 -0.035244457 0.47194958
0.022691889 -0.035245556 0.47194958
0.023697387 -0.035256021 0.47207457
0.024697 -0.035257161 0.47207457
0.025696738 -0.03525833 0.47207457
0.026696598 -0.035259515 0.47207457
0.027696591 -0.035260726 0.47207457
0.028689126 -0.035252623 0.47194958
0.02968912 -0.035253879 0.47194958
0.030681122 -0.035245817 0.47182459
0.031672746 -0.035237778 0.4716996
0.032663982 -0.035229757 0.47157463
0.033654835 -0.035221763 0.47144964
0.034654494 -0.035223126 0.47144964
0.035644863 -0.035215173 0.47132465
0.036634855 -0.035207245 0.47119966
0.037634455 -0.035208676 0.47119966
0.038634218 -0.035210125 0.47119966
0.03963415 -0.035211604 0.47119966
0.040634252 -0.035213109 0.47119966
0.041634526 -0.035214625 0.47119966
0.042634983 -0.035216179 0.47119966
0.043647178 -0.03522709 0.47132465
0.044660091 -0.035238024 0.47144964
0.045673717 -0.035248976 0.47157463
0.046688065 -0.035259966 0.4716996
0.047690503 -0.035261631 0.4716996
0.048718944 -0.035282012 0.47194958
0.049722299 -0.035283722 0.47194958
0.050752733 -0.035304151 0.47219956
0.05175703 -0.035305917 0.47219956
0.052761544 -0.035307713 0.47219956
0.053780492 -0.03531887 0.47232455
0.054785687 -0.03532071 0.47232455
0.055791106 -0.035322573 0.47232455
0.056781724 -0.035315119 0.47219956
0.057787318 -0.035317037 0.47219956
0.058762021 -0.035300277 0.47194958
0.059751727 -0.035292894 0.47182459
0.06072503 -0.035276186 0.47157463
0.061713882 -0.035268858 0.47144964
0.06268581 -0.035252199 0.47119966
0.063673802 -0.035244916 0.47107467
0.06466151 -0.035237651 0.47094968
0.065666378 -0.035239775 0.47094968
0.066653803 -0.035232563 0.47082469
0.067640968 -0.035225391 0.47069973
0.068646081 -0.035227589 0.47069973
0.069651447 -0.035229817 0.47069973
0.070657104 -0.035232071 0.47069973
0.071663037 -0.035234358 0.47069973
0.072669238 -0.035236668 0.47069973
0.073695287 -0.035248362 0.47082469
0.07470233 -0.035250731 0.47082469
0.075729758 -0.035262484 0.47094968
0.07675802 -0.035274275 0.47107467
0.077807762 -0.035295449 0.47132465
0.078837961 -0.035307307 0.47144964
0.079890154 -0.035328537 0.4716996
0.080943778 -0.03534982 0.47194958
0.081998751 -0.035371125 0.47219956
0.083055116 -0.035392459 0.47244954
0.084157377 -0.035432559 0.47294948
0.085329622 -0.035500791 0.47382438
0.086619839 -0.035615884 0.47532421
0.087916851 -0.035731032 0.47682405
0.089407131 -0.035921153 0.4793238
0.090507619 -0.035952099 0.47969875
-0.11063041 -0.035697069 0.49132252
-0.10935672 -0.035622314 0.49032262
-0.10817044 -0.035574842 0.48969769
-0.1070692 -0.035554659 0.48944771
-0.10596934 -0.035534505 0.48919773
-0.10487086 -0.035514388 0.48894778
-0.1038003 -0.03550338 0.48882279
-0.10270433 -0.035483345 0.48857281
-0.10163569 -0.035472408 0.48844782
-0.10054217 -0.03545244 0.48819783
-0.099449992 -0.03543251 0.48794788
-0.09838438 -0.035421684 0.48782289
-0.097294621 -0.035401817 0.48757291
-0.096230917 -0.03539107 0.48744792
-0.095143579 -0.035371274 0.48719797
-0.094033428 -0.03534244 0.48682299
-0.023313815 -0.037636168 0.51906955
-0.02224437 -0.037681703 0.51969451
-0.021157037 -0.037700076 0.51994443
-0.020068645 -0.03771846 0.52019441
-0.018970082 -0.037718747 0.52019441
-0.017888686 -0.037755318 0.52069438
-0.016797112 -0.037773773 0.52094436
-0.015712 -0.037810385 0.52144432
-0.014628264 -0.037856076 0.52206922
-0.013538633 -0.037892733 0.52256918
-0.012443895 -0.037920345 0.52294415
-0.011344839 -0.037938919 0.52319413
-0.010244695 -0.037957508 0.52344406
-0.0091456492 -0.037985194 0.52381903
-0.0080430666 -0.038003836 0.52406901
-0.0069410456 -0.038031559 0.52444398
-0.005836009 -0.038050245 0.52469397
-0.0047287471 -0.038059887 0.52481896
-0.0036209107 -0.038069557 0.52494395
-0.0025118983 -0.038070183 0.52494395
-0.0014035009 -0.038088955 0.52519387
-0.00029392153 -0.038098689 0.52531886
0.0008162451 -0.038108446 0.52544385
0.0019283771 -0.038145412 0.52594382
0.0030484665 -0.038254939 0.52744365
0.0041611516 -0.038237561 0.52719367
0.0052728527 -0.038220219 0.52694368
0.0063623651 -0.038075972 0.52494395
0.0074577322 -0.038004264 0.52394402
0.0085775591 -0.03805951 0.52469397
0.0097098704 -0.038151033 0.52594382
0.010888701 -0.038387652 0.52919346
0.012041661 -0.038497377 0.53069329
0.013083247 -0.038262583 0.52744365
0.014097728 -0.037991524 0.52369404
0.015139996 -0.037829287 0.52144432
0.017701175 -0.034251381 0.47207457
0.018700082 -0.03425236 0.47207457
0.019699095 -0.034253355 0.47207457
0.020703698 -0.034263451 0.47219956
0.0217032 -0.034264494 0.47219956
0.022708824 -0.034274627 0.47232455
0.023715096 -0.034284778 0.47244954
0.024715479 -0.034285884 0.47244954
0.025715992 -0.034287009 0.47244954
0.026716623 -0.034288157 0.47244954
0.02771006 -0.034280252 0.47232455
0.028703099 -0.034272365 0.47219956
0.029695738 -0.034264505 0.47207457
0.030687995 -0.034256659 0.47194958
0.031679854 -0.034248833 0.47182459
0.032671332 -0.034241028 0.4716996
0.033662431 -0.03423325 0.47157463
0.03465315 -0.034225486 0.47144964
0.035643488 -0.034217749 0.47132465
0.036633454 -0.034210026 0.47119966
0.037633039 -0.034211405 0.47119966
0.03863278 -0.034212802 0.47119966
0.039632689 -0.034214225 0.47119966
0.040632769 -0.034215666 0.47119966
0.041633025 -0.03421713 0.47119966
0.042633452 -0.034218621 0.47119966
0.043645624 -0.034229204 0.47132465
0.044658512 -0.034239806 0.47144964
0.045660023 -0.034241367 0.47144964
0.046674076 -0.034252025 0.47157463
0.04768886 -0.034262702 0.4716996
0.048691474 -0.03426433 0.4716996
0.049707443 -0.034275051 0.47182459
0.050724152 -0.034285802 0.47194958
0.051727887 -0.034287497 0.47194958
0.0527458 -0.034298297 0.47207457
0.053750228 -0.03430004 0.47207457
0.054754879 -0.03430181 0.47207457
0.055759743 -0.034303598 0.47207457
0.056749791 -0.034296334 0.47194958
0.057754833 -0.034298167 0.47194958
0.058728982 -0.034281861 0.4716996
0.059718136 -0.034274671 0.47157463
0.060706988 -0.034267496 0.47144964
0.061679162 -0.034251258 0.47119966
0.062683798 -0.034253217 0.47119966
0.063654862 -0.034237027 0.47094968
0.064642288 -0.034229957 0.47082469
0.065629438 -0.034222901 0.47069973
0.066633999 -0.034224965 0.47069973
0.067620859 -0.034217961 0.47057474
0.068625666 -0.03422007 0.47057474
0.069630764 -0.034222215 0.47057474
0.070636116 -0.034224372 0.47057474
0.071641751 -0.034226567 0.47057474
0.072666965 -0.03423788 0.47069973
0.07367342 -0.034240123 0.47069973
0.07469999 -0.034251485 0.47082469
0.075727403 -0.034262884 0.47094968
0.076775983 -0.034283396 0.47119966
0.077805325 -0.034294851 0.47132465
0.078856394 -0.034315433 0.47157463
0.079908848 -0.034336042 0.47182459
0.080962688 -0.034356687 0.47207457
0.082039602 -0.034386449 0.47244954
0.083096489 -0.034407154 0.47269949
0.084243715 -0.034464285 0.47344941
0.085484535 -0.034557849 0.47469929
0.086890467 -0.034715146 0.47682405
0.088236749 -0.034845211 0.47857386
0.089497626 -0.034938909 0.47982374
0.090693474 -0.035005353 0.48069865
-0.11193503 -0.034735963 0.49244738
-0.11057205 -0.034636945 0.49107254
-0.10932679 -0.034573227 0.49019763
-0.10819604 -0.034544818 0.48982266
-0.10706723 -0.034516439 0.48944771
-0.10599449 -0.034505736 0.48932272
-0.10492259 -0.034495056 0.48919773
-0.103825 -0.034475606 0.48894778
-0.10272878 -0.03445619 0.4886978
-0.10165991 -0.034445617 0.48857281
-0.1005919 -0.034435079 0.48844782
-0.099499226 -0.034415763 0.48819783
-0.098407887 -0.034396481 0.48794788
-0.097342871 -0.03438605 0.48782289
-0.096253954 -0.034366831 0.48757291
-0.095166393 -0.034347646 0.48732293
-0.0222767 -0.036636345 0.52044439
-0.021177635 -0.036636595 0.52044439
-0.020083388 -0.036645651 0.52056938
-0.018984055 -0.036645945 0.52056938
-0.017893301 -0.036663856 0.52081937
-0.016801482 -0.036681779 0.52106935
-0.015716132 -0.036717325 0.52156925
-0.014628652 -0.036752898 0.52206922
-0.013535806 -0.036779691 0.52244419
-0.012444325 -0.036815301 0.52294415
-0.011342579 -0.036824547 0.52306914
-0.01024517 -0.036851399 0.52344406
-0.0091439625 -0.036869474 0.52369404
-0.0080416659 -0.036887571 0.52394402
-0.0069382768 -0.036905702 0.524194
-0.0058337906 -0.036923844 0.52444398
-0.004728205 -0.036942009 0.52469397
-0.0036215165 -0.036960192 0.52494395
-0.0025125255 -0.036960807 0.52494395
-0.0014041497 -0.036979027 0.52519387
-0.00029452195 -0.036979679 0.52519387
0.00081555289 -0.036997944 0.52544385
0.0019262885 -0.037007451 0.52556884
0.0030361733 -0.03699936 0.52544385
0.004145598 -0.036991291 0.52531886
0.0052483142 -0.036939234 0.52456897
0.0063479342 -0.036887206 0.52381903
0.0074515766 -0.036870394 0.52356905
0.0085522002 -0.036844801 0.52319413
0.009681318 -0.036933661 0.52444398
0.012040743 -0.037375521 0.53069329
0.013131916 -0.037288409 0.52944344
0.014137153 -0.036990039 0.52519387
0.015106371 -0.036647663 0.5203194
0.017742399 -0.03333246 0.47319946
0.018733764 -0.033315796 0.47294948
0.019718962 -0.033290341 0.4725745
0.020719124 -0.033291332 0.4725745
0.021725144 -0.033301145 0.47269949
0.022731805 -0.033310968 0.47282448
0.023739114 -0.033320822 0.47294948
0.024747076 -0.033330694 0.47307447
0.025748888 -0.033331774 0.47307447
0.02674376 -0.03332407 0.47294948
0.027730901 -0.033307582 0.47269949
0.028717116 -0.033291113 0.47244954
0.029710267 -0.033283468 0.47232455
0.030694902 -0.033267029 0.47207457
0.031687014 -0.033259429 0.47194958
0.032678738 -0.033251841 0.47182459
0.033670072 -0.033244263 0.4716996
0.034661036 -0.033236723 0.47157463
0.035651624 -0.033229191 0.47144964
0.036641836 -0.033221684 0.47132465
0.037641659 -0.033223007 0.47132465
0.038631402 -0.033215541 0.47119966
0.039631288 -0.033216905 0.47119966
0.040631343 -0.033218291 0.47119966
0.041631576 -0.033219695 0.47119966
0.04263198 -0.033221122 0.47119966
0.043644138 -0.033231389 0.47132465
0.044657003 -0.033241663 0.47144964
0.04565848 -0.033243153 0.47144964
0.046660144 -0.033244666 0.47144964
0.047674641 -0.033255022 0.47157463
0.048689861 -0.03326539 0.4716996
0.049692642 -0.033266973 0.4716996
0.050709061 -0.033277385 0.47182459
0.051726215 -0.033287831 0.47194958
0.052730147 -0.033289481 0.47194958
0.053734284 -0.03329115 0.47194958
0.054738641 -0.033292845 0.47194958
0.055743206 -0.033294555 0.47194958
0.056732982 -0.033287484 0.47182459
0.057722438 -0.033280425 0.4716996
0.058711592 -0.033273391 0.47157463
0.059700444 -0.033266388 0.47144964
0.060689002 -0.033259396 0.47132465
0.061677258 -0.033252429 0.47119966
0.062665232 -0.033245485 0.47107467
0.063652918 -0.033238571 0.47094968
0.064640313 -0.033231676 0.47082469
0.065627433 -0.033224799 0.47069973
0.066614278 -0.033217959 0.47057474
0.067618795 -0.033219956 0.47057474
0.068605371 -0.033213157 0.47044975
0.069610149 -0.033215202 0.47044975
0.070633978 -0.033226103 0.47057474
0.07163959 -0.033228204 0.47057474
0.07266479 -0.033239156 0.47069973
0.073671214 -0.033241302 0.47069973
0.074717574 -0.033261139 0.47094968
0.075725131 -0.033263344 0.47094968
0.076773696 -0.033283234 0.47119966
0.077823646 -0.03330316 0.47144964
0.078874953 -0.033323105 0.4716996
0.079927638 -0.033343077 0.47194958
0.080981702 -0.033363082 0.47219956
0.082058862 -0.033391953 0.4725745
0.083137944 -0.033420857 0.47294948
0.084285684 -0.033476289 0.47369939
0.085549511 -0.033575922 0.47507423
0.087070085 -0.033772778 0.47782394
0.088510655 -0.033934355 0.48007372
0.08961153 -0.033963446 0.48044866
0.090808682 -0.034027915 0.48132357
-0.11292937 -0.033675928 0.49219742
-0.11167733 -0.033614092 0.49132252
-0.11054194 -0.033586506 0.49094754
-0.10932486 -0.033533301 0.49019763
-0.10819416 -0.03350579 0.48982266
-0.10709272 -0.033486858 0.4895727
-0.10601974 -0.033476513 0.48944771
-0.10492079 -0.033457644 0.48919773
-0.10384977 -0.03344737 0.48907274
-0.1027796 -0.033437125 0.48894778
-0.10168422 -0.033418361 0.4886978
-0.10061597 -0.03340818 0.48857281
-0.099523053 -0.033389483 0.48832282
-0.098456696 -0.033379365 0.48819783
-0.097366236 -0.033360738 0.48794788
-0.022309037 -0.035587881 0.52119434
-0.021203322 -0.035579603 0.52106935
-0.020098133 -0.035571333 0.52094436
-0.018998025 -0.03557162 0.52094436
-0.017906506 -0.035588998 0.52119434
-0.016813915 -0.035606392 0.52144432
-0.015720259 -0.035623807 0.52169424
-0.014629033 -0.035649784 0.52206922
-0.013536206 -0.035675775 0.52244419
-0.012441774 -0.035701789 0.52281916
-0.011340313 -0.035710759 0.52294415
-0.010240744 -0.035728283 0.52319413
-0.0091400836 -0.035745814 0.52344406
-0.0080383355 -0.035763372 0.52369404
-0.006937149 -0.035789493 0.52406901
-0.0058329469 -0.035807092 0.52431899
-0.0047276462 -0.035824716 0.52456897
-0.0036203805 -0.035833824 0.52469397
-0.002512536 -0.035842944 0.52481896
-0.001404111 -0.035852093 0.52494395
-0.00029496182 -0.035844192 0.52481896
0.00081391243 -0.03584484 0.52481896
0.0019223911 -0.035836972 0.52469397
0.0030296845 -0.035820592 0.52444398
0.00413599 -0.035804223 0.524194
0.0052388096 -0.0357708 0.52369404
0.0063395905 -0.035737403 0.52319413
0.0074436706 -0.035729632 0.52306914
0.0085452609 -0.035713345 0.52281916
0.009650493 -0.035714153 0.52281916
0.017825827 -0.032485694 0.4754492
0.018777378 -0.032392666 0.47407436
0.019764943 -0.032367982 0.47369939
0.020756505 -0.032351848 0.47344941
0.021752872 -0.032344278 0.47332445
0.022760835 -0.032353804 0.47344941
0.023775721 -0.03237189 0.47369939
0.024778713 -0.032372918 0.47369939
0.025781829 -0.032373957 0.47369939
0.026770936 -0.032357931 0.47344941
0.02775912 -0.032341927 0.47319946
0.028738778 -0.0323174 0.47282448
0.029724844 -0.032301433 0.4725745
0.030709988 -0.032285478 0.47232455
0.031702608 -0.032278091 0.47219956
0.032686185 -0.032262176 0.47194958
0.033677768 -0.032254819 0.47182459
0.034668978 -0.032247487 0.4716996
0.035659816 -0.032240171 0.47157463
0.036650266 -0.032232873 0.47144964
0.037650336 -0.032234136 0.47144964
0.038640324 -0.032226887 0.47132465
0.039640456 -0.03222819 0.47132465
0.040640749 -0.03222952 0.47132465
0.041641235 -0.032230873 0.47132465
0.042641878 -0.032232232 0.47132465
0.043654274 -0.032242164 0.47144964
0.04465555 -0.032243576 0.47144964
0.045657013 -0.032245006 0.47144964
0.046658657 -0.032246459 0.47144964
0.047673129 -0.03225648 0.47157463
0.048688326 -0.032266516 0.4716996
0.049691088 -0.032268032 0.4716996
0.050694048 -0.032269564 0.4716996
0.051697217 -0.032271121 0.4716996
0.052714549 -0.03228125 0.47182459
0.053718407 -0.032282852 0.47182459
0.054722473 -0.032284476 0.47182459
0.055726759 -0.032286115 0.47182459
0.056716237 -0.032279227 0.4716996
0.057720702 -0.032280911 0.4716996
0.05870983 -0.032274064 0.47157463
0.05969866 -0.03226725 0.47144964
0.060687199 -0.032260444 0.47132465
0.061675441 -0.032253668 0.47119966
0.062646747 -0.032238349 0.47094968
0.063634142 -0.032231614 0.47082469
0.064621262 -0.032224901 0.47069973
0.065625511 -0.032226771 0.47069973
0.066612341 -0.032220103 0.47057474
0.067616843 -0.032222018 0.47057474
0.068603374 -0.03221539 0.47044975
0.069608144 -0.032217346 0.47044975
0.070631936 -0.032227889 0.47057474
0.071637519 -0.0322299 0.47057474
0.072662689 -0.032240495 0.47069973
0.073688641 -0.032251116 0.47082469
0.074715428 -0.032261755 0.47094968
0.075743057 -0.032272432 0.47107467
0.07679186 -0.032291692 0.47132465
0.077842042 -0.032310992 0.47157463
0.078893587 -0.032330308 0.47182459
0.079946518 -0.032349654 0.47207457
0.081000835 -0.032369029 0.47232455
0.082078218 -0.032396995 0.47269949
0.083179533 -0.032433569 0.47319946
0.084305532 -0.032478731 0.47382438
0.085614599 -0.032592475 0.4754492
0.087044828 -0.032749109 0.47769895
0.088070318 -0.032751549 0.47769895
0.08979547 -0.033011105 0.48144856
-0.11389408 -0.03260855 0.49182245
-0.11275538 -0.032581791 0.49144751
-0.1115902 -0.032546781 0.49094754
-0.11048378 -0.032528374 0.49069756
-0.10932304 -0.032493442 0.49019763
-0.10821997 -0.032475103 0.48994765
-0.1071183 -0.032456808 0.48969769
-0.10601799 -0.032438535 0.48944771
-0.10491908 -0.0324203 0.48919773
-0.10387463 -0.032418668 0.48919773
-0.10277794 -0.0324005 0.48894778
-0.10170863 -0.032390643 0.48882279
-0.10064015 -0.032380827 0.4886978
-0.099546991 -0.032362744 0.48844782
-0.021229008 -0.034520019 0.52169424
-0.020108055 -0.03448721 0.52119434
-0.019011997 -0.034495763 0.52131933
-0.017911114 -0.034496076 0.52131933
-0.016818279 -0.03451293 0.52156925
-0.015728144 -0.034538087 0.52194422
-0.014629409 -0.034546722 0.52206922
-0.013533365 -0.034563649 0.5223192
-0.012436242 -0.034580596 0.52256918
-0.011338037 -0.034597557 0.52281916
-0.01023875 -0.034614541 0.52306914
-0.0091383737 -0.034631539 0.52331907
-0.0080369115 -0.034648564 0.52356905
-0.0069360086 -0.034673873 0.52394402
-0.00583209 -0.034690931 0.524194
-0.0047270721 -0.034708008 0.52444398
-0.0036200902 -0.034716837 0.52456897
-0.0025119314 -0.034717407 0.52456897
-0.0014037192 -0.034718003 0.52456897
-0.00029538106 -0.034710336 0.52444398
0.00081248785 -0.034702696 0.52431899
0.0019194332 -0.0346868 0.52406901
0.0030261092 -0.034679197 0.52394402
0.0041313386 -0.034663327 0.52369404
0.0052343328 -0.034639217 0.52331907
0.0063343029 -0.034606848 0.52281916
0.007435794 -0.034591042 0.52256918
0.0085342666 -0.03456698 0.52219421
0.017053386 -0.031918246 0.48207349
0.017890541 -0.03159637 0.47719902
0.018860631 -0.031531047 0.47619912
0.019816168 -0.031449184 0.47494927
0.02080488 -0.031425275 0.4745743
0.021792121 -0.031401377 0.47419935
0.02279591 -0.031402323 0.47419935
0.023799822 -0.031403288 0.47419935
0.024803855 -0.031404272 0.47419935
0.025808007 -0.031405274 0.47419935
0.026798159 -0.031389736 0.47394937
0.027780045 -0.031365935 0.4735744
0.02876048 -0.031342153 0.47319946
0.029739462 -0.031318393 0.47282448
0.03072512 -0.031302921 0.4725745
0.03171825 -0.031295747 0.47244954
0.032702342 -0.031280313 0.47219956
0.03368552 -0.031264894 0.47194958
0.034676973 -0.031257767 0.47182459
0.035668049 -0.031250671 0.4716996
0.036658753 -0.031243585 0.47157463
0.037649084 -0.03123652 0.47144964
0.038649298 -0.031237753 0.47144964
0.039649677 -0.031239003 0.47144964
0.040650222 -0.031240271 0.47144964
0.041650943 -0.031241564 0.47144964
0.04265184 -0.031242874 0.47144964
0.043652907 -0.031244194 0.47144964
0.044654172 -0.031245546 0.47144964
0.045655608 -0.031246917 0.47144964
0.046669602 -0.031256586 0.47157463
0.047671683 -0.031257991 0.47157463
0.048673958 -0.031259414 0.47157463
0.049689598 -0.031269144 0.4716996
0.050692543 -0.031270612 0.4716996
0.051695693 -0.031272102 0.4716996
0.052699037 -0.031273607 0.4716996
0.053702593 -0.031275135 0.4716996
0.054706376 -0.031276684 0.4716996
0.055710383 -0.031278256 0.4716996
0.056714594 -0.031279847 0.4716996
0.057719037 -0.031281453 0.4716996
0.058708154 -0.031274807 0.47157463
0.059696961 -0.031268168 0.47144964
0.060685471 -0.031261552 0.47132465
0.061673693 -0.031254955 0.47119966
0.062644973 -0.031240085 0.47094968
0.063649252 -0.031241827 0.47094968
0.06463661 -0.031235298 0.47082469
0.065623678 -0.031228786 0.47069973
0.066628166 -0.031230586 0.47069973
0.06761495 -0.031224122 0.47057474
0.068619698 -0.03122597 0.47057474
0.069624722 -0.031227846 0.47057474
0.070629992 -0.03122974 0.47057474
0.071654573 -0.031239957 0.47069973
0.07266067 -0.031241896 0.47069973
0.073706187 -0.031260453 0.47094968
0.074733227 -0.031270742 0.47107467
0.075761087 -0.031281058 0.47119966
0.076810129 -0.031299684 0.47144964
0.077860542 -0.031318352 0.4716996
0.078891441 -0.031328741 0.47182459
0.079944342 -0.031347454 0.47207457
0.081020057 -0.031374499 0.47244954
0.082075998 -0.031393271 0.47269949
0.083177269 -0.031428676 0.47319946
0.084303237 -0.031472407 0.47382438
0.085432224 -0.031516172 0.47444931
0.08663255 -0.031584881 0.4754492
0.088021845 -0.031720053 0.477449
0.089047089 -0.031722404 0.477449
0.089860469 -0.031650037 0.47632411
0.090669356 -0.031577684 0.47519922
0.091739066 -0.031596716 0.4754492
0.092810221 -0.031615783 0.47569919
0.093858145 -0.031626571 0.47582418
0.094906963 -0.031637378 0.47594914
0.09595672 -0.031648226 0.47607413
-0.1159986 -0.031568568 0.49182245
-0.11491602 -0.031558692 0.49169746
-0.11383434 -0.031548847 0.49157247
-0.11269619 -0.031522993 0.49119753
-0.1115884 -0.031505194 0.49094754
-0.11042573 -0.031471379 0.49044761
-0.1093213 -0.03145365 0.49019763
-0.10821828 -0.031435948 0.48994765
-0.10711662 -0.031418279 0.48969769
-0.10601638 -0.031400643 0.48944771
-0.10497108 -0.031399067 0.48944771
-0.10387307 -0.031381495 0.48919773
-0.10280268 -0.031371962 0.48907274
-0.10173312 -0.031362467 0.48894778
-0.10066439 -0.031352997 0.48882279
-0.020137262 -0.033434108 0.52194422
-0.019039642 -0.0334424 0.52206922
-0.017932897 -0.033434704 0.52194422
-0.016834736 -0.033443023 0.52206922
-0.015728498 -0.033435363 0.52194422
-0.014626277 -0.033435721 0.52194422
-0.013530514 -0.033452112 0.52219421
-0.012433672 -0.033468518 0.52244419
-0.011335753 -0.033484947 0.52269417
-0.010236748 -0.033501394 0.52294415
-0.0091366554 -0.033517856 0.52319413
-0.0080354735 -0.033534337 0.52344406
-0.0069331983 -0.033550829 0.52369404
-0.0058298269 -0.03356735 0.52394402
-0.0047253566 -0.033583887 0.524194
-0.0036197831 -0.033600438 0.52444398
-0.002511906 -0.033600993 0.52444398
-0.0014039769 -0.033601567 0.52444398
-0.00029592088 -0.03359415 0.52431899
0.0008114723 -0.033578742 0.52406901
0.0019178714 -0.033563353 0.52381903
0.0030232789 -0.033547979 0.52356905
0.0041267136 -0.033524621 0.52319413
0.0052298834 -0.033509277 0.52294415
0.0063305576 -0.033485953 0.52256918
0.01392819 -0.03075254 0.47982374
0.0150014 -0.030873487 0.48169854
0.016032757 -0.030898323 0.48207349
0.017070223 -0.030931192 0.48257345
0.017955283 -0.030699702 0.47894883
0.01893401 -0.030644473 0.47807392
0.019909143 -0.030589256 0.47719902
0.020858767 -0.030502005 0.47582418
0.021837147 -0.030462835 0.47519922
0.022831023 -0.030447725 0.47494927
0.023823958 -0.030432623 0.47469929
0.024829028 -0.030433567 0.47469929
0.025820624 -0.030418502 0.47444931
0.026811287 -0.030403452 0.47419935
0.02780102 -0.030388417 0.47394937
0.028782232 -0.03036538 0.4735744
0.029761996 -0.030342365 0.47319946
0.030748423 -0.030327374 0.47294948
0.031733941 -0.030312406 0.47269949
0.032718547 -0.030297451 0.47244954
0.033702232 -0.030282514 0.47219956
0.034685019 -0.030267589 0.47194958
0.035676338 -0.030260699 0.47182459
0.036676999 -0.030261833 0.47182459
0.037667848 -0.030254981 0.4716996
0.038658332 -0.030248143 0.47157463
0.039658956 -0.03024934 0.47157463
0.040659748 -0.030250553 0.47157463
0.041649673 -0.030243767 0.47144964
0.042650551 -0.030245019 0.47144964
0.043651607 -0.030246289 0.47144964
0.044664674 -0.030255588 0.47157463
0.045666363 -0.030256895 0.47157463
0.046668231 -0.03025822 0.47157463
0.047670294 -0.030259557 0.47157463
0.04868545 -0.030268935 0.4716996
0.049688172 -0.030270318 0.4716996
0.050691094 -0.030271716 0.4716996
0.051694222 -0.030273136 0.4716996
0.052697562 -0.030274581 0.4716996
0.053701095 -0.030276032 0.4716996
0.05470486 -0.030277511 0.4716996
0.055708837 -0.030279005 0.4716996
0.056713037 -0.030280527 0.4716996
0.057717454 -0.03028206 0.4716996
0.058706548 -0.030275593 0.47157463
0.059695337 -0.030269142 0.47144964
0.060683828 -0.030262712 0.47132465
0.061672021 -0.030256305 0.47119966
0.062659927 -0.030249918 0.47107467
0.063647546 -0.030243544 0.47094968
0.064652033 -0.030245222 0.47094968
0.065639347 -0.030238893 0.47082469
0.0666264 -0.030232588 0.47069973
0.067631125 -0.030234328 0.47069973
0.068636112 -0.03023609 0.47069973
0.069641359 -0.030237874 0.47069973
0.070646882 -0.030239677 0.47069973
0.071671702 -0.030249536 0.47082469
0.072697371 -0.030259423 0.47094968
0.073723815 -0.030269323 0.47107467
0.074751087 -0.030279251 0.47119966
0.075799286 -0.030297233 0.47144964
0.076828487 -0.030307207 0.47157463
0.077858515 -0.030317212 0.4716996
0.078910284 -0.030335275 0.47194958
0.079963431 -0.030353358 0.47219956
0.081017956 -0.030371469 0.47244954
0.08207386 -0.030389605 0.47269949
0.083175108 -0.030423844 0.47319946
0.084256582 -0.030450076 0.4735744
0.085339986 -0.030476326 0.47394937
0.086470865 -0.030518681 0.4745743
0.087627843 -0.030569116 0.47532421
0.088648506 -0.030571343 0.47532421
0.089693084 -0.03058164 0.4754492
0.090667009 -0.030567836 0.47519922
0.091760814 -0.030594267 0.4755742
0.092832193 -0.030612681 0.47582418
0.093880355 -0.030623084 0.47594914
0.094929442 -0.030633517 0.47607413
0.09600462 -0.030652022 0.47632411
0.097055785 -0.030662507 0.4764491
0.098133601 -0.030681066 0.47669908
-0.11713971 -0.030549813 0.49219742
-0.11602627 -0.03053252 0.49194744
-0.11488501 -0.030507497 0.49157247
-0.1137747 -0.030490274 0.49132252
-0.11266579 -0.03047308 0.49107254
-0.1115299 -0.030448159 0.49069756
-0.11042408 -0.030431025 0.49044761
-0.10931966 -0.030413924 0.49019763
-0.10821666 -0.030396853 0.48994765
-0.10714239 -0.030387567 0.48982266
-0.1060419 -0.03037056 0.4895727
-0.10496961 -0.030361334 0.48944771
-0.10389813 -0.030352132 0.48932272
-0.1028275 -0.030342963 0.48919773
-0.1017577 -0.030333819 0.48907274
-0.020185763 -0.032408874 0.52319413
-0.019076403 -0.032401416 0.52306914
-0.017946092 -0.032355264 0.5223192
-0.016839096 -0.032347843 0.52219421
-0.015732611 -0.032340433 0.52206922
-0.014630144 -0.032340787 0.52206922
-0.013527656 -0.032341156 0.52206922
-0.012431098 -0.03235703 0.5223192
-0.011333457 -0.032372918 0.52256918
-0.010232288 -0.032381084 0.52269417
-0.009132742 -0.032397006 0.52294415
-0.0080321059 -0.03241295 0.52319413
-0.00693203 -0.032436647 0.52356905
-0.0058289408 -0.032452621 0.52381903
-0.0047247512 -0.032468617 0.52406901
-0.0036185966 -0.03247688 0.524194
-0.0025118634 -0.032485161 0.52431899
-0.001403881 -0.032477979 0.524194
-0.0002963701 -0.032470804 0.52406901
0.00081047812 -0.032455903 0.52381903
0.0019158747 -0.032433275 0.52344406
0.0030204733 -0.032418407 0.52319413
0.010841026 -0.029619994 0.47794893
0.011848498 -0.029612947 0.47782394
0.012852168 -0.029598178 0.47757399
0.013905658 -0.029691869 0.47907382
0.014996727 -0.029847555 0.48157355
0.016081838 -0.029972276 0.48357335
0.01814656 -0.030004863 0.48407328
0.019037116 -0.029796503 0.48069865
0.019950006 -0.02964239 0.47819892
0.020901728 -0.029558003 0.47682405
0.021864982 -0.02949688 0.47582418
0.022854153 -0.029474508 0.4754492
0.02384186 -0.029452147 0.47507423
0.024841173 -0.029445302 0.47494927
0.025833279 -0.029430721 0.47469929
0.026824458 -0.029416157 0.47444931
0.027814703 -0.029401606 0.47419935
0.028796433 -0.029379323 0.47382438
0.029776702 -0.029357051 0.47344941
0.03076365 -0.029342547 0.47319946
0.031749684 -0.029328058 0.47294948
0.032734796 -0.029313579 0.47269949
0.033718999 -0.029299121 0.47244954
0.034702301 -0.029284677 0.47219956
0.035694133 -0.029277997 0.47207457
0.036685597 -0.029271338 0.47194958
0.037686665 -0.029272437 0.47194958
0.038677659 -0.029265812 0.47182459
0.039668284 -0.029259199 0.4716996
0.040669329 -0.029260354 0.4716996
0.041670546 -0.029261529 0.4716996
0.042671934 -0.029262718 0.4716996
0.0436735 -0.029263929 0.4716996
0.044675246 -0.029265154 0.4716996
0.045677178 -0.029266398 0.4716996
0.046679303 -0.029267659 0.4716996
0.047681615 -0.029268937 0.4716996
0.048684116 -0.029270232 0.4716996
0.049686816 -0.029271543 0.4716996
0.050703153 -0.029280631 0.47182459
0.051706526 -0.029281985 0.47182459
0.052710112 -0.029283354 0.47182459
0.053713903 -0.02928474 0.47182459
0.054732397 -0.029293902 0.47194958
0.055722125 -0.029287565 0.47182459
0.056726567 -0.029289011 0.47182459
0.057731241 -0.029290473 0.47182459
0.05872057 -0.029284189 0.4716996
0.059725441 -0.029285694 0.4716996
0.06069836 -0.029271692 0.47144964
0.061703153 -0.029273229 0.47144964
0.06267494 -0.029259263 0.47119966
0.063679703 -0.029260838 0.47119966
0.064667553 -0.029254675 0.47107467
0.065655105 -0.029248524 0.47094968
0.066660084 -0.029250162 0.47094968
0.067665316 -0.029251814 0.47094968
0.068670839 -0.029253494 0.47094968
0.069676593 -0.029255185 0.47094968
0.070682637 -0.029256906 0.47094968
0.071688943 -0.029258642 0.47094968
0.072714835 -0.02926817 0.47107467
0.07374154 -0.029277716 0.47119966
0.074769042 -0.029287284 0.47132465
0.075797409 -0.029296881 0.47144964
0.07684695 -0.029314265 0.4716996
0.077877216 -0.029323904 0.47182459
0.078908332 -0.029333564 0.47194958
0.079961441 -0.029351017 0.47219956
0.081015952 -0.029368497 0.47244954
0.082071833 -0.029385997 0.47269949
0.083151095 -0.029411301 0.47307447
0.084232256 -0.029436626 0.47344941
0.085292876 -0.029454209 0.47369939
0.086400427 -0.029487358 0.47419935
0.087510474 -0.029520536 0.47469929
0.088599704 -0.029545972 0.47507423
0.089667298 -0.029563658 0.47532421
0.090664782 -0.029558051 0.47519922
0.091758549 -0.029583568 0.4755742
0.092829898 -0.029601334 0.47582418
0.093902685 -0.029619128 0.47607413
0.094952025 -0.02962918 0.47619912
0.096027434 -0.029647028 0.4764491
0.097078852 -0.029657133 0.47657409
0.098156899 -0.029675037 0.47682405
0.099236436 -0.029692978 0.47707403
-0.11825284 -0.02952184 0.49244738
-0.11713799 -0.029505158 0.49219742
-0.11602455 -0.029488504 0.49194744
-0.11491255 -0.029471887 0.49169746
-0.11377305 -0.029447807 0.49132252
-0.11266419 -0.029431248 0.49107254
-0.11155672 -0.029414717 0.49082255
-0.11045067 -0.029398222 0.4905726
-0.10934602 -0.02938175 0.49032262
-0.10824278 -0.029365314 0.49007264
-0.10716826 -0.029356388 0.48994765
-0.10606755 -0.029340008 0.48969769
-0.10499499 -0.02933114 0.4895727
-0.10392328 -0.029322304 0.48944771
-0.10285242 -0.029313492 0.48932272
-0.020205328 -0.031333532 0.52369404
-0.019081254 -0.031303909 0.52319413
-0.017972171 -0.031296734 0.52306914
-0.016847484 -0.031259652 0.52244419
-0.015729185 -0.03123007 0.52194422
-0.014626998 -0.031230414 0.52194422
-0.013524793 -0.031230783 0.52194422
-0.012428513 -0.031246116 0.52219421
-0.011331155 -0.03126147 0.52244419
-0.010230265 -0.03126936 0.52256918
-0.0091309994 -0.031284742 0.52281916
-0.0080325631 -0.031307627 0.52319413
-0.0069308486 -0.031323042 0.52344406
-0.0058280388 -0.031338472 0.52369404
-0.00472413 -0.031353928 0.52394402
-0.0036182557 -0.031361908 0.52406901
-0.0025112042 -0.031362429 0.52406901
0.0088263992 -0.028631035 0.47832391
0.0098195896 -0.028579315 0.477449
0.010837507 -0.028602418 0.47782394
0.011841604 -0.028588131 0.47757399
0.012861545 -0.028611263 0.47794893
0.013908559 -0.028686792 0.47919881
0.014999872 -0.028837165 0.48169854
0.016060289 -0.028912725 0.48294839
0.019234294 -0.029079668 0.4856981
0.020105606 -0.028855972 0.48194852
0.020972122 -0.028647246 0.4784489
0.021898599 -0.028535811 0.47657409
0.022877324 -0.028499221 0.47594914
0.023859803 -0.028470134 0.4754492
0.02485336 -0.028456027 0.47519922
0.02584598 -0.028441934 0.47494927
0.026837669 -0.028427854 0.47469929
0.027828433 -0.028413787 0.47444931
0.02881827 -0.028399738 0.47419935
0.029807182 -0.028385701 0.47394937
0.030787049 -0.028364193 0.4735744
0.031773861 -0.028350184 0.47332445
0.032759752 -0.028336186 0.47307447
0.033735819 -0.028314719 0.47269949
0.034719631 -0.028300757 0.47244954
0.035711978 -0.028294288 0.47232455
0.036703955 -0.028287839 0.47219956
0.037705541 -0.02828889 0.47219956
0.038697049 -0.028282471 0.47207457
0.039688189 -0.028276067 0.47194958
0.040689744 -0.028277164 0.47194958
0.041691475 -0.028278282 0.47194958
0.042693373 -0.028279413 0.47194958
0.043695457 -0.028280564 0.47194958
0.044697717 -0.028281726 0.47194958
0.045700163 -0.028282912 0.47194958
0.046702798 -0.028284106 0.47194958
0.047705621 -0.028285323 0.47194958
0.048708644 -0.028286552 0.47194958
0.049711861 -0.028287802 0.47194958
0.050715271 -0.028289065 0.47194958
0.051718898 -0.028290348 0.47194958
0.052736692 -0.02829914 0.47207457
0.053741001 -0.02830046 0.47207457
0.05474551 -0.028301788 0.47207457
0.055750251 -0.028303141 0.47207457
0.056755211 -0.028304512 0.47207457
0.057745099 -0.028298404 0.47194958
0.058750235 -0.028299809 0.47194958
0.059739798 -0.028293742 0.47182459
0.060729045 -0.028287685 0.4716996
0.061718002 -0.028281648 0.47157463
0.062706664 -0.028275628 0.47144964
0.063695051 -0.028269628 0.47132465
0.064700291 -0.028271139 0.47132465
0.065688372 -0.028265174 0.47119966
0.066693865 -0.028266728 0.47119966
0.067699626 -0.028268302 0.47119966
0.068705626 -0.028269889 0.47119966
0.069711916 -0.028271494 0.47119966
0.070718467 -0.028273128 0.47119966
0.071725287 -0.028274773 0.47119966
0.072732396 -0.028276442 0.47119966
0.073778912 -0.028293135 0.47144964
0.074787118 -0.028294843 0.47144964
0.075815722 -0.02830408 0.47157463
0.076845124 -0.028313328 0.4716996
0.077896021 -0.028330114 0.47194958
0.078927368 -0.028339406 0.47207457
0.079959571 -0.028348727 0.47219956
0.081014059 -0.028365577 0.47244954
0.082069904 -0.028382443 0.47269949
0.083127163 -0.028399343 0.47294948
0.084208049 -0.028423762 0.47332445
0.085290872 -0.028448217 0.47369939
0.08635287 -0.028465183 0.47394937
0.087439314 -0.028489681 0.47432432
0.088504389 -0.028506698 0.4745743
0.089570887 -0.028523741 0.47482428
0.090662666 -0.028548319 0.47519922
0.091756396 -0.028572923 0.4755742
0.09282773 -0.028590046 0.47582418
0.093925148 -0.028614705 0.47619912
0.094999626 -0.028631877 0.4764491
0.096050374 -0.02864157 0.47657409
0.097127482 -0.028658794 0.47682405
0.098206058 -0.028676048 0.47707403
0.099286109 -0.02869333 0.47732401
0.10036761 -0.028710641 0.47757399
-0.11954916 -0.028536038 0.49344727
-0.11831122 -0.028491057 0.49269736
-0.11719584 -0.028475014 0.49244738
-0.11605243 -0.02845178 0.49207243
-0.114911 -0.028428573 0.49169746
-0.11380045 -0.028412623 0.49144751
-0.11269134 -0.0283967 0.49119753
-0.11158364 -0.028380807 0.49094754
-0.11047737 -0.028364943 0.49069756
-0.10942821 -0.028363554 0.49069756
-0.10832419 -0.028347742 0.49044761
-0.10722157 -0.02833196 0.49019763
-0.10612033 -0.028316205 0.48994765
-0.10502047 -0.028300475 0.48969769
-0.10397506 -0.02829922 0.48969769
-0.017942414 -0.030141285 0.52219421
-0.016851833 -0.030163243 0.52256918
-0.015729524 -0.030127497 0.52194422
-0.014623849 -0.030120624 0.52181923
-0.01352192 -0.03012098 0.52181923
-0.012422947 -0.030128568 0.52194422
-0.011326131 -0.030143384 0.52219421
-0.010220891 -0.030136565 0.52206922
-0.0091161476 -0.03012977 0.52194422
0.00578062 -0.027560733 0.47732401
0.0067841122 -0.027539661 0.47694904
0.0077881366 -0.027525824 0.47669908
0.0088004041 -0.027540861 0.47694904
0.0098189488 -0.027570348 0.477449
0.01083402 -0.027585417 0.47769895
0.011844033 -0.027586062 0.47769895
0.012864226 -0.027608376 0.47807392
0.013900607 -0.027659578 0.47894883
0.014983587 -0.027790189 0.48119858
0.016009685 -0.027805334 0.48144856
0.019228566 -0.02804576 0.48557311
0.020104822 -0.027837174 0.48194852
0.020954892 -0.02761415 0.47807392
0.021903532 -0.027535513 0.47669908
0.02289453 -0.027514651 0.47632411
0.023877788 -0.027486581 0.47582418
0.024872119 -0.027472956 0.4755742
0.025865525 -0.027459349 0.47532421
0.026850928 -0.027438536 0.47494927
0.027842205 -0.027424956 0.47469929
0.028832555 -0.02741139 0.47444931
0.029821981 -0.027397834 0.47419935
0.03081049 -0.02738429 0.47394937
0.031798076 -0.027370764 0.47369939
0.032784753 -0.027357249 0.47344941
0.03377052 -0.027343752 0.47319946
0.034755375 -0.027330259 0.47294948
0.035739325 -0.027316788 0.47269949
0.036722373 -0.027303327 0.47244954
0.037724476 -0.027304333 0.47244954
0.038716491 -0.027298117 0.47232455
0.039718658 -0.027299145 0.47232455
0.040710215 -0.027292965 0.47219956
0.041712463 -0.027294021 0.47219956
0.042714886 -0.0272951 0.47219956
0.043717481 -0.027296187 0.47219956
0.044720255 -0.027297292 0.47219956
0.045723211 -0.027298409 0.47219956
0.046726368 -0.027299551 0.47219956
0.047729705 -0.027300701 0.47219956
0.048733242 -0.027301867 0.47219956
0.049736969 -0.027303044 0.47219956
0.050740898 -0.027304245 0.47219956
0.051745035 -0.027305458 0.47219956
0.052749384 -0.027306689 0.47219956
0.053768165 -0.027315166 0.47232455
0.054773197 -0.027316429 0.47232455
0.055778451 -0.027317708 0.47232455
0.056783926 -0.027319005 0.47232455
0.057789624 -0.027320318 0.47232455
0.058779985 -0.027314419 0.47219956
0.059785873 -0.027315762 0.47219956
0.06075982 -0.027302666 0.47194958
0.061749287 -0.027296815 0.47182459
0.062738471 -0.027290981 0.4716996
0.063744247 -0.027292395 0.4716996
0.064733125 -0.027286597 0.47157463
0.065721735 -0.027280817 0.47144964
0.066727728 -0.027282283 0.47144964
0.067733996 -0.027283765 0.47144964
0.068740524 -0.027285272 0.47144964
0.069747329 -0.027286794 0.47144964
0.070754394 -0.027288336 0.47144964
0.071761727 -0.027289895 0.47144964
0.072769351 -0.027291471 0.47144964
0.073777266 -0.027293073 0.47144964
0.074805282 -0.027301922 0.47157463
0.075834095 -0.02731079 0.4716996
0.076863773 -0.027319685 0.47182459
0.07789427 -0.027328599 0.47194958
0.078925602 -0.027337534 0.47207457
0.07997895 -0.027353726 0.47232455
0.081012256 -0.027362706 0.47244954
0.082068086 -0.027378945 0.47269949
0.083125308 -0.0273952 0.47294948
0.084183946 -0.027411485 0.47319946
0.085266486 -0.027435033 0.4735744
0.086328186 -0.027451359 0.47382438
0.087414324 -0.027474955 0.47419935
0.088479131 -0.027491333 0.47444931
0.08956892 -0.027514976 0.47482428
0.090660654 -0.02753864 0.47519922
0.091754369 -0.027562333 0.4755742
0.092850067 -0.027586056 0.47594914
0.093923062 -0.027602552 0.47619912
0.094997525 -0.027619077 0.4764491
0.096073441 -0.027635628 0.47669908
0.09715078 -0.027652204 0.47694904
0.098229624 -0.027668804 0.47719902
0.099335894 -0.027692679 0.47757399
0.10044418 -0.027716579 0.47794893
-0.12103348 -0.02758763 0.49519709
-0.11969899 -0.027523432 0.49407223
-0.11836969 -0.027459268 0.49294734
-0.11722408 -0.027436908 0.49257237
-0.11608043 -0.027414579 0.49219742
-0.11493875 -0.027392276 0.49182245
-0.11382796 -0.027376963 0.49157247
-0.11271862 -0.02736168 0.49132252
-0.11163909 -0.027353382 0.49119753
-0.11053228 -0.027338151 0.49094754
-0.10945477 -0.027329901 0.49082255
-0.1083781 -0.02732168 0.49069756
-0.10727497 -0.027306525 0.49044761
-0.1062003 -0.027298357 0.49032262
-0.10507286 -0.027276292 0.48994765
0.0017468523 -0.026570935 0.47769895
0.0027561926 -0.026571438 0.47769895
0.0037665812 -0.026578914 0.47782394
0.0047700661 -0.026544681 0.47719902
0.0057724919 -0.026517414 0.47669908
0.0067799846 -0.026517969 0.47669908
0.0077895927 -0.026525488 0.47682405
0.0087998044 -0.026533017 0.47694904
0.0098157665 -0.026554471 0.47732401
0.010833395 -0.026575934 0.47769895
0.011846495 -0.026583508 0.47782394
0.012866939 -0.026605003 0.47819892
0.013903567 -0.02665432 0.47907382
0.01497512 -0.026759285 0.48094863
0.016000677 -0.026773866 0.48119858
0.017027389 -0.026788462 0.48144856
0.018027151 -0.02676134 0.48094863
0.019029856 -0.026741188 0.48057365
0.019958086 -0.026623674 0.4784489
0.020943176 -0.026589632 0.47782394
0.021914251 -0.026541688 0.47694904
0.022899756 -0.026514621 0.4764491
0.023895806 -0.026501477 0.47619912
0.024884388 -0.026481392 0.47582418
0.025878306 -0.026468268 0.4755742
0.026871288 -0.026455158 0.47532421
0.02786335 -0.026442064 0.47507423
0.028854484 -0.026428981 0.47482428
0.02984469 -0.026415909 0.4745743
0.03083398 -0.02640285 0.47432432
0.03182235 -0.026389804 0.47407436
0.032809813 -0.026376773 0.47382438
0.033796355 -0.026363749 0.4735744
0.034781989 -0.026350738 0.47332445
0.035766724 -0.026337743 0.47307447
0.036760267 -0.026331717 0.47294948
0.037753433 -0.026325706 0.47282448
0.038746241 -0.026319709 0.47269949
0.039749179 -0.026320679 0.47269949
0.040752295 -0.026321666 0.47269949
0.041744545 -0.026315706 0.4725745
0.042747747 -0.026316723 0.4725745
0.043739554 -0.026310794 0.47244954
0.044742849 -0.026311839 0.47244954
0.045746326 -0.026312897 0.47244954
0.046749994 -0.026313972 0.47244954
0.047753844 -0.026315058 0.47244954
0.048757892 -0.026316158 0.47244954
0.049762148 -0.026317276 0.47244954
0.050766591 -0.026318405 0.47244954
0.051771238 -0.026319552 0.47244954
0.052776098 -0.026320713 0.47244954
0.053781167 -0.02632189 0.47244954
0.054786455 -0.026323082 0.47244954
0.055806711 -0.026331253 0.4725745
0.0568127 -0.026332475 0.4725745
0.057818916 -0.026333716 0.4725745
0.058809806 -0.02632801 0.47244954
0.059816208 -0.026329273 0.47244954
0.060806759 -0.0263236 0.47232455
0.061797008 -0.026317935 0.47219956
0.062786974 -0.026312284 0.47207457
0.06377665 -0.026306652 0.47194958
0.064766049 -0.026301039 0.47182459
0.065755151 -0.026295438 0.4716996
0.066761672 -0.026296819 0.4716996
0.067750499 -0.026291253 0.47157463
0.068757288 -0.026292674 0.47157463
0.069764331 -0.026294105 0.47157463
0.070771642 -0.026295558 0.47157463
0.071779229 -0.026297029 0.47157463
0.072787099 -0.026298512 0.47157463
0.073795259 -0.026300021 0.47157463
0.074823514 -0.026308512 0.4716996
0.075832509 -0.026310058 0.4716996
0.076862149 -0.026318589 0.47182459
0.077892639 -0.026327139 0.47194958
0.078944847 -0.026342683 0.47219956
0.079977289 -0.026351277 0.47232455
0.08101055 -0.026359884 0.47244954
0.082066372 -0.026375487 0.47269949
0.083123595 -0.026391115 0.47294948
0.084182195 -0.026406765 0.47319946
0.085242189 -0.026422428 0.47344941
0.086326383 -0.026445098 0.47382438
0.087412506 -0.026467787 0.47419935
0.088477269 -0.026483517 0.47444931
0.089567035 -0.026506256 0.47482428
0.090658762 -0.026529012 0.47519922
0.091752455 -0.026551798 0.4755742
0.092848115 -0.026574602 0.47594914
0.093945749 -0.026597433 0.47632411
0.095020458 -0.026613308 0.47657409
0.096121788 -0.026636187 0.47694904
0.097199656 -0.026652109 0.47719902
0.098278999 -0.026668057 0.477449
0.099385798 -0.026691014 0.47782394
0.10049461 -0.026713993 0.47819892
-0.12215595 -0.026551271 0.49544707
-0.12097089 -0.026523035 0.49494714
-0.11972781 -0.026481431 0.49419719
-0.1184283 -0.026426468 0.49319732
-0.11728216 -0.026405016 0.49282235
-0.11613802 -0.026383596 0.49244738
-0.11499584 -0.026362199 0.49207243
-0.1138556 -0.026340827 0.49169746
-0.11274597 -0.026326174 0.49144751
-0.11169463 -0.026324945 0.49144751
-0.11058731 -0.026310343 0.49119753
-0.10950929 -0.026302462 0.49107254
-0.10845972 -0.0263013 0.49107254
-0.10738314 -0.026293466 0.49094754
-0.1063345 -0.026292352 0.49094754
-0.020668196 -0.025828039 0.48282343
-0.019648703 -0.025828274 0.48282343
-0.018643675 -0.025848577 0.48319837
-0.006357817 -0.02568529 0.48007372
-0.0053396942 -0.025665622 0.47969875
-0.0043242434 -0.025652656 0.47944877
-0.0033089435 -0.025633015 0.47907382
-0.0022957807 -0.025620067 0.47882384
-0.0012832904 -0.025600446 0.4784489
-0.00027261834 -0.025607586 0.47857386
0.00073805713 -0.025594676 0.47832391
0.0017463621 -0.025561707 0.47769895
0.002757133 -0.025575569 0.47794893
0.003763112 -0.025549317 0.477449
0.0047695418 -0.02553645 0.47719902
0.0057734675 -0.025516897 0.47682405
0.0067812135 -0.02551743 0.47682405
0.0077910731 -0.025524661 0.47694904
0.0088038463 -0.025538594 0.47719902
0.0098177511 -0.025552537 0.477449
0.010829964 -0.025559803 0.47757399
0.011845886 -0.025573771 0.47782394
0.012866316 -0.025594439 0.47819892
0.013892051 -0.025621811 0.47869885
0.014912209 -0.025635814 0.47894883
0.015954301 -0.025683282 0.47982374
0.01696483 -0.025677241 0.47969875
0.017965565 -0.025657831 0.4793238
0.018949972 -0.025618358 0.47857386
0.019936524 -0.025585586 0.47794893
0.020936979 -0.0255729 0.47769895
0.021919262 -0.025540147 0.47707403
0.022911029 -0.02552079 0.47669908
0.023901328 -0.025501445 0.47632411
0.024896694 -0.025488798 0.47607413
0.025891133 -0.025476165 0.47582418
0.026884634 -0.025463542 0.4755742
0.027877212 -0.025450934 0.47532421
0.028868856 -0.025438329 0.47507423
0.029859588 -0.025425741 0.47482428
0.030857518 -0.025419857 0.47469929
0.031846669 -0.025407294 0.47444931
0.032834906 -0.025394738 0.47419935
0.033822238 -0.0253822 0.47394937
0.034808658 -0.025369665 0.47369939
0.03580362 -0.02536384 0.4735744
0.036798209 -0.025358031 0.47344941
0.037792422 -0.025352228 0.47332445
0.038786273 -0.025346441 0.47319946
0.039790269 -0.025347358 0.47319946
0.040783655 -0.025341596 0.47307447
0.041787725 -0.025342537 0.47307447
0.042780668 -0.0253368 0.47294948
0.043784831 -0.025337772 0.47294948
0.04477733 -0.025332056 0.47282448
0.04578159 -0.025333056 0.47282448
0.046773676 -0.025327371 0.47269949
0.047778048 -0.025328394 0.47269949
0.048782617 -0.025329432 0.47269949
0.049787384 -0.025330482 0.47269949
0.050792344 -0.025331546 0.47269949
0.051797513 -0.025332626 0.47269949
0.052802891 -0.025333717 0.47269949
0.053808473 -0.025334824 0.47269949
0.054814275 -0.025335945 0.47269949
0.055835061 -0.025343783 0.47282448
0.056841556 -0.025344929 0.47282448
0.057848293 -0.025346098 0.47282448
